# .PCD v0.7 - Point Cloud Data file format
VERSION 0.7
FIELDS x y z
SIZE 4 4 4
TYPE F F F
COUNT 1 1 1
WIDTH 829
HEIGHT 1
VIEWPOINT 0 0 0 1 0 0 0
POINTS 829
DATA ascii
1.3160170822417108 -4.4581661396076 -0.4826405892016108
-4.132433820138679 3.7090431388418583 0.22308164761224725
-5.721987875910351 9.749418147497817 -0.1282375250067982
9.307325783557836 -1.916040230774401 -0.36223053891119594
-3.4568534565516877 -8.955428263757575 -0.09486654728028632
1.3552386612670304 -5.581841439653099 -0.45668040384814745
-8.99164135746788 1.2601753452156252 -0.39837646553571326
6.670908258055121 4.139471650764593 -0.1597838052584245
-9.113064117923049 8.52558990442056 -0.3292629249695145
9.694721877406426 7.0445788836201615 0.24603959079900495
-1.0860611398046842 -6.164189634574941 -0.2902877772691985
6.13899617132121 -4.9069064893388425 -0.24411551720862745
9.388358644183853 -3.179758264851957 -0.2893826458064098
-4.576689021435605 2.195210989565087 -0.4833176356616461
-6.176011509449156 5.384042815096798 -0.12221352574537458
9.643418280684333 5.662148805135786 -0.1748218903291172
0.6703208917652255 -5.145703026421762 -0.4018614808450519
9.881675707122113 3.295145753730484 0.03889330077930686
8.349652116562982 4.604180500879158 0.29922312781912297
-9.911707885364805 7.565174942396375 -0.12438864303391095
-1.5323705738414528 7.300032231715068 0.3324374426551745
9.02247882263547 5.412066969388512 0.13681596207420033
-4.104611123291315 -3.5776609122490832 0.20534533148219458
3.1355934183483765 9.483946294471039 0.30703208530329396
6.3803618259355375 4.8613687972001465 -0.18984870655109165
-3.445184284548805 2.078552818623427 -0.12752859218453827
5.115454879110612 -2.1809301272684127 -0.3371565508335769
3.7062953334994475 8.408929967904818 -0.32017706671626067
5.8769572668768895 -5.633696073265 0.17621799058879883
9.659266902344967 3.433810403552087 -0.4484830240287099
0.722186573878103 9.25235207590908 -0.15693295355726677
-2.0915108799672115 0.841892141190657 -0.044149426388728985
-2.3534372665736125 3.8163420000693176 -0.27084413922981165
-4.953363928734689 1.2042122571869704 0.44659816567791055
9.912069214714407 -6.865745350735426 -0.0052946520663123
-6.244147507771169 6.473679916399547 -0.1423421502653306
7.387145413950925 5.4418225824380535 -0.23730344661944514
9.349723657155941 -3.984407247445148 0.40982571766128917
0.6819997787324361 -2.438754103707206 0.4313301314186688
-5.517617104583943 4.782297486447913 0.48134408910547677
-0.658245779327352 4.210576199849044 -0.497547657059374
1.1441246775548883 -1.9268717508296014 -0.08225325880029033
9.724229787113195 1.0859282430322956 -0.4182714617032167
-8.289446908216295 -7.0260028262519665 0.140795072666848
0.5029394847702875 -8.730808988358856 -0.25323108426522545
-7.339973229594605 6.247671427750795 -0.3678716875966872
-8.910985104768985 4.990747782688942 0.006988549333765581
1.9283145383796292 -1.5027504937802654 -0.09898277263249455
-0.29939525692222446 1.4427031390291507 0.4479973633983265
8.011349791022862 -2.2964239530687136 0.41234612644253577
7.552192891838999 -2.7651071111478593 -0.005887712271490431
-1.5658281500696596 -3.7251122983302087 0.29644075020349625
-7.095417651729341 -1.633692699693512 0.26017566583840457
6.710179639284565 -6.70249425534029 0.45306379249120654
6.699652568091395 9.978469098310477 0.32982749131033884
9.994439980512666 -7.3006263706658325 -0.053650295063895515
-8.537465916982503 -4.416760735154941 -0.2928699368320222
-2.7383016054240557 1.9530846732384646 0.04693408021111667
-4.821948013067534 1.704839712034893 0.4951299728265953
-0.5744862783677807 1.3843954676193064 -0.10197325583453987
-5.613764976844773 -1.0004228987504593 -0.07322585040457474
6.430153320840677 8.67222329060029 0.3672522966588475
-1.7630608595912118 -2.7910167474839493 0.2585981711338322
4.055851615403597 4.7650954246462245 -0.006476938472076976
-5.994874156241714 -8.443088017208943 -0.3431214213779188
-3.299304924884206 6.223662180962698 -0.3438376656807124
0.496892660235563 5.322990379350989 -0.2891889012105545
-9.681266676310951 5.561527596820641 -0.3861310921770884
-7.431272783622365 3.996800008632098 0.30594296342857097
-3.709117004442506 -8.357423691140337 -0.04232551615451541
3.9611726579517246 6.5495348301342275 -0.42385264197663197
6.455942781163078 -9.082463664552636 -0.2271008169617158
5.059632340439659 -9.5396794668185 -0.3043101833843367
9.361973424351834 9.372838126768475 -0.06312855167021303
-3.3781839073091984 7.353171194435422 -0.21645862997890664
7.593439883295478 0.3492389847921302 0.21618338507993218
1.1087756722673667 -5.449345293777528 0.1414647223634221
-3.8955613218659817 4.170361263125908 -0.301621087784928
-6.458869501134203 -6.47017002262698 0.4073577538478794
-5.694420731456775 -7.346397807436482 -0.03781994528930355
-2.060709274350887 4.800372319338406 0.25530774561007186
-4.142890887217261 -1.7760066115612805 0.49035408955224
-6.9912973360862 -0.6720155105810264 -0.3411241717003295
9.9104720198962 8.667827388478273 0.09899565719973691
4.705095460471288 -9.403996710135829 0.05025166524510405
9.771889133591632 3.3491900111928317 0.31382745983213745
-6.669175230694333 1.8268597401940418 -0.3533484806394488
4.918181869836404 -7.237189314463706 -0.25268794057485233
-5.992001863653407 6.619754646205347 -0.3086042781429861
-7.565076814297173 -8.047970313919429 -0.3616343954329412
6.56195632210407 -3.152539711136127 0.37947955874289363
8.223798172242354 5.284937048755706 0.08656126273032017
3.0425598956511593 -9.197972072479693 -0.3629470121975934
-4.984812468301851 -5.604730620624087 0.24145017208231212
9.169738993592045 6.704662670339186 -0.3259380185223716
2.0529903934326565 9.502491179027956 0.2248717576057666
-0.5943814141186348 0.8623520437660162 0.15108761774898793
-9.855355908651562 -9.355222553053888 0.17785918806498013
0.25339395819145594 6.456936743795424 -0.362671725871208
4.915269874374122 -3.1423464472879132 -0.35052052213862883
5.574489563234273 5.318367156741953 0.07372590092445042
-3.3107308874078223 7.2423876455745955 0.10113316097488656
4.231578792944806 6.67030899783969 -0.2991487125614387
-5.06290563640632 2.5520699719777014 0.22177933435911434
1.7473090698741718 -3.605735467969189 -0.4611785826236927
8.537898221015709 -0.7831199137637572 -0.23824066291451895
-8.257301512812186 5.947103477084745 -0.16820784598143423
-8.985441346666626 7.098076458899325 0.12133704449836569
6.544062265405287 -4.174077927716566 0.049856435362988116
0.14304135402122142 7.760996861689836 -0.37163081374742146
9.512315805981949 6.2843461698560255 -0.24631299700881015
6.457751263546655 3.8863634577829806 -0.3971116417441005
-1.3760962467006248 2.5163978831476683 0.3637142139813394
0.318209951800867 -7.986679033052262 0.1701834084328676
3.7491074664467927 2.256059928654965 0.09340575193047185
-4.440624980947277 -2.1729787912258764 -0.3912259521972833
-8.872443818207126 -1.024879859137931 -0.29756023456892833
-2.9246771832600826 -3.314544704863012 0.29959096868256574
-4.815101506741684 4.570121946507069 0.39152860856751703
-4.009086649977145 4.443856134917731 -0.030176475825430038
-6.457443054800307 1.132133094133252 0.3346679988754624
3.431822357889523 -0.8682349594526748 -0.019460791571867198
9.65835097998212 -4.043569751443243 -0.2835109665177622
-6.307446998295838 7.705783405156993 -0.33412557112261565
-3.0262847184124375 4.342264884648586 0.3779423679563473
1.7744814321093934 6.15818908296259 -0.379590611259935
8.016299052932467 2.5840521767176092 -0.18264732621720592
-6.37839466837111 -9.350128196776254 -0.13281024350416393
9.826331572227762 -8.38300539565114 0.21510941418351437
4.7949383784258295 -7.426957474730591 0.09577226735547373
-6.34635020588412 -1.3562551237055729 -0.013199356586100386
-4.006282506295957 8.986466372276055 -0.42436558189755125
9.058938591187285 0.02653746142219582 0.468956878156909
-5.162569649662283 1.0907031898890445 -0.4338440283579723
9.566820410979368 -5.252935882938199 -0.4852621477789567
-3.8264343916951855 -5.693365954979446 0.07271717261406496
1.3136635448363343 -1.7236568588342127 -0.07559349875546251
-9.935447984467435 -1.549624357498022 -0.09032592596100641
9.259193594078521 -8.38586929151946 -0.16242761861645583
-9.416806178409939 5.788566154999097 0.3506481646214862
-9.862359669538666 -0.5865865535338148 -0.43265297953146487
7.5021220461532 -4.594132766342847 -0.12234053110440679
3.987566062993368 -7.390627564422045 -0.06905309755915301
-3.623705733696527 5.286993977068921 -0.40905317771176575
-0.7034525098992379 -9.66320546044644 0.07466499550584416
0.22004842919093548 7.339791933504941 -0.25642146047098313
7.902031882543646 8.861477000722576 -0.4140546681417303
3.251194036656674 0.4297086666489687 -0.17199488880299463
9.5334907367527 5.155859774396479 -0.3036629044996606
-8.04690416100292 8.123409649510322 -0.10458716498917697
-4.2989116173952135 7.282176586171158 0.3987485494746812
-4.3004174692915065 -3.2451247859955457 -0.02783762992515082
1.6015289686365701 -2.1909955874187244 -0.36024931359006096
-1.3668134315478184 -9.458202126875223 -0.2567496767258932
3.1796413004756037 -9.243085675338651 -0.23979975730555847
6.9986088953156695 4.558168743490265 0.0995751984659069
-0.7636295869661591 -7.1597793985277125 0.4009443405747187
3.9562645376417507 6.592535490100772 -0.06505556810212476
8.342117813656394 -0.9256792838457706 -0.11662368517655264
0.8232227993913366 8.249338050353142 0.3250471674950566
-3.739675887439004 -0.3418224353191519 -0.35160221521731516
-4.685672973935389 -5.578750450262144 0.4311327105326306
-4.576342640093689 0.7335890547940096 0.0723974068589901
-9.433972353853502 1.925214669891865 0.320961463145495
-6.440476166705538 2.62895094392816 0.11690840508008349
7.890321103145666 -8.382174060655563 0.4615759848911729
9.630858299085517 -6.277511585799287 -0.13171889224637456
3.8390178698593136 7.92090037520261 -0.19573975078878836
-2.797668377610549 -7.8586366602284174 -0.21141855493873352
-3.884067753536849 1.0907090200907987 -0.0941549048395075
-2.857346382874617 -1.727785357591996 0.36218347691658637
-5.656961451039841 4.343771885089513 -0.4932317653176096
4.909754518887885 2.7468825107277297 0.2748875162022738
5.869358445721797 -5.646216269746487 0.1991203036892626
9.947592323567918 4.829320680113259 0.4646327745452774
9.559033520437662 -4.838468265264517 0.40622413424125414
6.6043113600536145 3.7030569771442003 -0.19983448245826796
-4.6465880391188445 -7.835218860686936 -0.2669125294160123
-2.2197172570857227 5.994167792737672 0.3307749552205983
-4.2417586450068185 3.5093414619812116 0.3023276606480302
-3.4591057581737665 -4.59539095817706 0.11359046985220678
9.60876314375993 0.05193988721846665 0.3072939844085738
6.627709993243286 3.236813282023917 -0.4922678091771504
2.993500217849931 -4.6863499681543725 0.22085865038148833
2.263787853289882 -3.935040335965767 -0.2624170488711589
-0.8111299295143493 -8.377421751013326 0.1360777874554573
8.880977515355571 6.862434511465217 0.4983611956218872
-8.148799897762073 -6.414415682639827 -0.3569459838242327
-6.946265248336485 7.1508185793324515 -0.008190466530413443
-5.593046903394631 -0.9938800119064446 -0.38757411711873757
7.21439930862681 1.604049909635414 0.07269744657772204
1.5560501577198576 -7.962886607582192 -0.19107573307063563
-4.686485815062554 9.045975633805522 0.32479203217516184
7.995512384649693 6.940799446005549 -0.36348971462311386
-9.521089069737442 8.96502471125347 0.30669010317588064
4.1179568583243835 8.853199679913057 0.36511083422387536
1.6099912516433506 -9.038584356021726 -0.1986215339275197
-7.239462743463594 -3.4620510272198013 0.11702581278780344
-7.589447380019645 9.495878304857666 0.3811011742532243
6.140234769043772 6.224547333812886 0.36547736394320907
3.047813724041351 0.21323137377514811 0.2087745782469198
-8.25028608827939 2.79130946733779 -0.36070842146038773
-2.258772745804012 8.512345257672031 -0.46721002501167497
-0.12234479737436033 -5.8863463204321125 0.4796476244620259
8.757016503493851 9.814962987421787 0.38910339551850026
5.542673917030239 -1.4006443807083553 0.10048740512145715
-4.940101500566614 -8.741031133914472 -0.10709488018077673
3.1247093157645605 -9.258364160633278 0.4001772875594849
1.4426923087571986 -8.309827138918882 0.4316306018340015
-4.138740779437895 -7.8474245511416925 -0.45227406765574674
-7.3709186694732365 0.45100257403736776 0.3334439755557671
5.619983274630728 -1.8307809745358306 -0.42765375986237286
0.854659273710606 6.657747854508557 0.11405186620171714
7.147318295796829 8.855688768210655 -0.13416220540137624
4.5924080407822885 3.876189931244191 -0.2805699566190376
-0.36306700052393737 8.834360683607873 -0.2331382150532526
9.29424852331326 1.3817188597460124 0.08151715899848466
8.953749138242834 -1.581204438969399 -0.44887587969654896
3.364302683176385 -7.448209414362177 -0.4076630334722853
-8.899410465709659 9.709968462474517 -0.3988626145986416
-8.419873687334377 -9.207238859025985 0.3847584679011232
9.959314686600152 -5.491114065560032 0.42486797750127503
-6.889548606315678 -8.362564461759057 0.39389941977452303
-1.4544046681649725 -5.647012660656321 0.12751827339678434
-1.703466285910844 -7.400896013608413 -0.15408150984812186
-6.978091448262669 8.813489056802563 -0.24405502496428932
-0.2262342923550964 0.5910740664234471 0.23585465195646904
6.226386400999331 -2.4278514967975067 -0.4301886488654222
-4.7671440961077565 8.029049519403767 -0.0842817107074395
2.431299054273161 3.9700141825967386 0.21392724967648657
-1.597313169685819 6.764473140356262 0.12145969104050547
2.565227341149887 -6.093449255141994 -0.2900673427046777
2.3146552019824647 3.7310544776625036 0.016100328093406557
2.188908962237681 1.0557095112134611 0.044124090596030285
3.534376047615355 7.627118523677904 0.03547878654957515
-0.8132042386742899 -6.703774486215572 0.13837238234726357
-9.965085654502131 -6.342139423565667 -0.43596572347325335
2.0538557575372316 -7.387256804396845 -0.3350344527744358
9.493135730710744 5.11577609482355 0.4830346667661255
-0.47523002374931167 -1.7238576975100308 -0.37751911718415876
-6.327307629728002 -3.1624910848423715 -0.009172937901950173
0.5366581533383439 -4.1928768406645585 0.33747560374720087
-1.7613735615536026 3.3329430145370242 0.2607399242535339
1.8849577793683459 -9.028368563285929 -0.029632772195955948
-4.145991809495442 7.9801184580780635 0.14584895291575783
9.822517994006901 -6.948582936640375 -0.07419529919257895
6.9724392441625795 8.658005496206044 0.434527878652855
-0.860451521107052 5.37511717946979 0.277919135980905
0.8654039466985672 8.631931577504702 0.4535610113342976
2.7788217071490493 8.09420490162497 0.44149631821287827
-8.093439497112808 8.973209801282657 0.3532084979118194
-6.7171108766392145 0.6101595989641737 -0.07256513865188108
5.1135013474184365 9.712495804029952 0.3332925511398077
-9.113382234349338 3.34890137760242 0.46890411089451944
-9.768908764850215 -0.909560293338334 0.4851985586900698
-8.065715764456405 -4.1032734903348445 -0.12088399032980679
1.4349977535591574 4.593174147693379 -0.33828681743371425
-0.35321838989170296 1.5768135120588251 -0.127752453809014
-4.131505128604309 1.114376768275724 -0.33956647735757073
-2.5439646134577742 0.37329098922033666 0.4998820625551337
-3.8472056935492915 -6.702978137128454 -0.21095800636490925
8.308422695824454 4.871098471909301 -0.3194941734343204
8.441516573278548 4.377771620938542 0.03345394688504477
2.0682258293119222 -7.804989738429007 -0.1103622797696917
-2.9299501640253967 -9.906481253383696 -0.41709059061368925
4.497268127183148 3.9496912490267775 -0.27480404843309303
6.978233628404862 4.280755747258143 -0.3713382757062079
1.5893283208532942 -5.442491135239416 0.1791712511635155
6.423624871485238 -8.763320541193412 0.13766630591899676
-7.9214043433152455 -6.021224398015335 -0.3806832198382386
-4.062788438925762 -9.490123622793213 -0.032575697839194784
-7.993676756300188 -6.478146776638585 -0.4508829202745398
-8.27056463293593 9.052721907719889 0.373367346356274
8.222511076300659 -0.22525018262599872 -0.10767821512009157
-5.7669584510991845 -9.076505564613303 -0.026733014350465045
2.340615091629388 -5.108018401755112 0.19154444131380444
2.2010949863432963 -7.087212161101986 -0.36606693447701066
-3.593206231288322 1.3600106134069954 -0.216741886259602
5.526635681386324 1.9345926676855658 -0.45798609127000545
4.852467582484268 2.301631080817044 -0.11651993143237505
8.088866667461872 1.5839116589202789 -0.06865922823640325
9.656272688799849 -7.4777753904814 0.4852398793805546
-7.3113259984628325 -2.165776889459723 0.40491345198706896
6.133696108175599 -9.317555274377593 0.05522992675814353
2.4553709906007875 -7.582994451835394 0.1462855931342778
-5.402595153701892 -3.0719927007490178 0.08964265948347261
-7.8777299887473085 7.963463531976455 0.05239252181408838
7.322298238496902 -4.637894088044712 -0.32421994419362443
-7.047539925277153 -7.57609300735687 -0.34484021078120863
-1.956343500821367 -1.3697496845276902 -0.058019996294527254
-5.347605622433715 0.7306314072752134 -0.44293099571830474
9.544488731543925 8.20748164525239 -0.2772784104324132
0.9042638986566836 5.559957968958598 0.3757161105423339
0.3130819233883049 -0.4889805007886956 -0.29678052529640286
-0.5201948716740894 8.14369611770957 -0.4735293855122571
8.35626101953752 1.5682287930991414 -0.4911195191101926
5.977184333479965 -9.484452651004949 0.2163934498001836
-4.2257827646056185 -6.3455638261973 -0.09911416972332332
9.964981308934867 -5.3627992018745 0.05070426100766745
-1.613763200522719 3.485036046493599 0.032949357620311925
2.8271840808608406 2.2451579567897877 -0.3764778198410029
-1.296482346225872 6.924686839772399 -0.4038251045936525
7.328320804218762 -6.6954905339418485 -0.042706066664910614
6.598521059085098 -6.036098387031075 -0.3551093181937398
-7.7105646382002835 7.463753175739338 0.28053058022638167
-9.252199044416098 2.1297695487449495 -0.38686627001866103
8.799004977878873 9.144143130726853 -0.46318630995498256
-6.60189833222264 -4.371668332158595 -0.29963338558232044
-0.5746716841619097 4.717230189100341 0.013742396746796115
-8.627809494003442 -7.350772955256102 0.10897265843530868
9.750052290231316 0.5678140015598299 -0.11259395992849819
-4.2962790676581175 -7.650694806187561 0.2813119948465642
8.113761871526847 3.872316883928553 -0.37080253824340936
-3.670580125241674 3.7041064066799567 -0.1280178808096618
0.07211540431882568 -5.519584212634423 0.00714891451937405
1.8285778311330585 -1.2422761033515517 -0.00890406232240748
-3.4601163722286277 -4.980881072142269 -0.2994083055660569
1.2866557951576176 6.830767668310106 -0.23614363109767034
2.4111672080574778 3.6486913909170724 0.2318159157430003
9.48847529914454 -0.5024608708069493 0.49853199299375806
-9.827072096771987 -6.977782597390942 -0.4484681009927187
-0.6312788568159338 -4.200835177155479 0.06277089024177929
-3.316311073140376 2.9882289111399896 -0.25916096785458875
1.108922433110724 -9.004871422254526 -0.2788319378009104
-1.646100242686808 0.9211104631135605 -0.3622520601324192
-3.72026590362021 -1.8532021914974273 -0.2854775807273424
9.341102624602886 5.297305779762873 -0.12741244713110655
7.477326459651621 3.23072350817959 0.32487660011518393
-7.027643653089077 2.28901645993254 -0.05678735383649358
9.23713736544152 -3.0937988747655005 0.36096960032348724
6.642275088811175 -3.8563126829520966 0.16202343327208146
-6.4451260002557165 5.049569840540229 0.3865970280890445
-1.6518532669520738 2.3676933876506787 0.2589466502529464
-5.70898265806181 -6.237255383146283 -0.36032386265649363
2.9664853055825304 6.438739086756513 0.25067131814704635
8.50423016941108 6.68765705749248 0.4346231654873952
-3.820835556834954 2.9521792640172926 -0.40281673060972334
5.225492811245715 -0.20609644532745008 0.3159691545279938
1.4589067191663023 -0.46840451902777147 0.4326562902215806
3.8600725947281447 -2.5425618257354854 -0.2664455463888652
2.3232792378006373 3.8116879471509897 -0.31718526704046035
4.0738641314846085 8.38308790800821 -0.12422758436852643
-3.3682444634873203 -4.554937852134355 0.16963771266687244
-4.476551620900073 -4.629847927542798 -0.36077191236716344
-7.918332748430061 -3.039037775461882 -0.21425203931667858
-3.0091203843453425 -7.103488777498441 0.19760458938105674
1.4370024430115365 -6.767067838270044 0.24786922532300093
0.6599734126616763 8.355746043620698 -0.4153197241284765
-4.924461527547306 9.400856641895366 0.2427390475391612
-2.8328486120375835 6.111831163415339 -0.4398365012973423
-0.6795728752045278 -3.645315033797452 -0.44324990222289007
-9.720793265049794 -5.90114151051909 0.34143345529807356
2.1392729039354297 2.884962918913141 0.23728267580359796
-3.518386611864903 0.4392854277274232 -0.32182919880508565
-5.462596490330693 -6.3935783978178184 -0.45022075021694363
7.096499431868818 8.497197863718917 0.2866650873563832
2.996288535531022 0.7718533344762051 -0.21757625519773216
-6.085224103070859 7.991456691328949 0.3389517552404129
-2.4048247023769465 8.4961355139563 -0.19666172027617146
-6.528919119425116 6.421654177553677 0.3492097070274146
-1.96166137982204 3.3450491524646253 -0.04734553238479078
-7.3752873977454 4.265850178053032 -0.2703803277143072
-9.40149734184346 1.4718855852369455 0.4856175568336307
-1.7742551337458519 9.581114566413827 -0.36815866914012263
7.288576994412544 2.090925402562453 0.21995583686986597
-6.002557239008719 5.818822198220467 -0.15569447466640052
-8.764202927051244 -5.869215267573901 -0.44495773477997147
3.8429068279966856 4.108791597062549 -0.3160979648090334
2.170819708638575 8.673556851693643 0.18622428179247885
4.267750314609817 4.123441612302923 0.10885497557943968
3.575553556127268 -0.6679409179864049 -0.4146949702810294
-6.910335036778625 8.835089959972152 -0.4069840282403553
-8.364436193773148 3.4563438294249487 -0.34037949887620356
-3.540221357621432 -3.6160461988072434 0.40873906562179885
-5.059096684033209 -9.275453344827199 -0.005791511958416873
-8.92837230530346 -8.63413754536623 0.23412091149617487
-8.26218875724582 7.800251024182636 0.09994867574965116
-2.7002138235269975 -3.594456969697884 0.24113366702415384
-7.855238408969456 -5.912378249948691 0.10164840105712147
-4.881437420115393 9.0745091671883 -0.09499700812954825
-4.753328558771292 -4.740911297628118 -0.24640054271743173
0.41735645176913394 -2.285769823999182 0.4640412789599637
0.05553138869624519 9.20363437004304 0.23784321803209296
8.541328615016972 9.622774755736302 -0.07569271720043136
2.0884182322052087 -1.8510760574107188 0.07632492599282759
2.735767717385471 5.31716881994803 0.40633204525160826
-1.9850920233082565 -3.139414562027687 0.481928437200253
8.122784316813316 4.749519337325509 0.4883126299306588
5.144141724175821 -7.621906791396389 -0.3949368804871962
-4.0378405136210604 7.4070890836327585 0.016946864579550636
0.8577734222931692 -6.7082892984743285 -0.09385468710608247
-0.4327292380524881 -8.871044201323308 -0.09112788877712985
-8.818468676489594 -5.90657824509816 -0.00044283931914723684
-5.252040616347607 2.573730491013521 -0.3610391950384487
0.8747968553243624 7.3450776403702704 -0.19748922050141637
8.242481998367268 -9.22749854612513 -0.13224164816779738
-2.6611607507974515 -7.105956993126943 0.2850300577110543
-7.9574618948002 -1.9920047377516035 0.25776905176032927
7.972141738766645 -5.93209836859743 -0.32526907474139566
-3.120867201352846 2.04102061117106 0.47286674935040574
2.018984859816893 5.807601676235926 -0.029703591771348847
6.832013356275041 6.51573652389116 -0.25967406280091665
9.139521300405264 7.952354515342172 -0.11467251201601736
3.781904679780668 -5.5109666592517765 -0.3918198277390643
-3.0282371408188187 -7.293628662066567 0.44464434809910036
-9.922850326972629 -0.9332435764155704 -0.15221639778810014
6.22802680972444 -3.753837982624029 -0.410790081328928
-5.87753539272736 -4.050482026691816 -0.29777327680629784
-9.00124320447022 -1.2811318441905186 -0.4787993057963922
4.20359756763866 -4.075605136645642 -0.42670833588814905
8.314435773043414 2.9913569549790235 0.03944391991326246
0.41199535055774383 -5.6279539615807135 0.15760005763198814
-7.9050983074497765 7.681017055663165 -0.040514581887041934
-7.020264422944584 4.05682545017685 -0.2059163616970684
-2.887086271934818 3.0793052801705834 0.21087573199381304
1.7178391087503329 4.996692450311542 0.2134781277847292
-4.251118889109997 -6.814900591179558 -0.3993258741495399
6.616719665376259 -0.08812397153342744 -0.4536949033267099
-7.267092178035801 -4.964808058431531 -0.4708828625797735
-9.571884504048212 5.298386599206635 -0.3929434461595911
-5.0166180448940985 -7.864193274384266 -0.35837578906136447
9.722455266799379 -4.3263240553767695 -0.25264896406122184
6.228060577620894 0.403605242161472 -0.4946712707010109
-7.318289079214011 3.4453901848319735 -0.13783176416470233
2.635668861059198 -9.111578599127633 0.3152068278027611
3.091604634572878 -2.933770276574343 0.165429725457228
3.7635615941752256 5.640785222959623 0.11480933546968553
-4.068796910461456 8.82556837357184 -0.25863428114935183
4.79839694740588 -3.1014946332227904 -0.04456568221895618
-1.7545853685644737 4.461321264527392 -0.16920002272583878
-1.8857616396147687 8.625289321245859 -0.08349966194350955
5.837481521678715 -1.048249874717591 0.37907056485516855
-3.486192883739876 8.373321836516485 -0.2770079793241069
-6.1440088293632105 -3.6453060616012323 -0.4294071906304888
4.569695538197511 -6.006115261116274 0.1086663833480298
2.707765297519318 -5.871732120814395 -0.47891656429124985
0.5282767696772375 8.082495090430854 0.4772742321956236
-4.320827622447638 4.203442712232521 -0.16976932024950553
2.1485676779963807 6.55707863745565 -0.40761840067217625
-4.821768003259892 -4.633140376267184 0.2766695696215349
7.1651495301866035 7.5960966464684105 -0.11649598858283094
-6.469760173076946 -6.098000315425562 0.04912955300027577
-1.344056488133031 -4.35670797861019 -0.0700483503196826
-4.157090641801197 -6.006023536360039 0.48656549860543297
-9.11577806381831 -8.059078896752023 -0.18665104823067813
9.119433231023198 -4.539856054637951 -0.21598584865710013
-4.107259486196446 0.628404429709537 0.48672801425490697
-2.279580596904993 7.213720768534046 0.3971980066191815
-9.920810496683528 5.236910980289828 -0.17671350471497593
-3.408035657239541 -5.917429943858039 -0.3721086139761389
6.763356346134035 -0.3412010173722635 -0.2642483214150658
6.068811094782131 -8.951904556307378 -0.021695692569236757
4.960732026676789 2.0454132866115327 0.26122378435743865
1.289575184318645 -2.781789732160087 -0.09122541857588817
4.079689560364187 -8.12937441799928 -0.20895175355303508
-1.731898966348819 -5.590835100548464 -0.2993709586881912
-7.558949896787228 8.074775697305729 0.29744857048561235
8.72994712721055 9.46710237391779 -0.006321186908130216
4.670840862989067 -4.303004072882468 0.18077117426425526
2.4965762455601954 7.577362734193326 -0.056999122153837734
-4.4360157476122435 -8.49700653160977 -0.26890864453277474
5.873168753849519 8.002699695421668 -0.3852049986414121
-3.3184360670257185 -9.954773020635185 0.12842827970349124
-8.129027394322318 9.876054134844672 -0.11350710903444639
-4.557158954643629 6.2915149852773595 0.31489805483649613
0.9190091049788833 7.46900953643738 -0.46059136006942625
7.24026507351331 -4.997456374212234 -0.33151723777194586
4.273077529974746 -3.649695131277393 0.3639992443343828
1.0163330845608982 8.514039007724634 0.22741668462255105
6.411747307514009 -4.831901062019838 0.4237099693149329
-8.97739887598708 6.787509839973815 0.38184729342455537
8.362185160997107 4.94468391101686 0.05067043597762966
3.771828990526636 -8.900715210635246 -0.4709011064864026
-2.804024519303252 -5.5375758639678025 0.4583135363357872
-5.658795607408418 -7.631336573120409 0.06125330151512365
2.64034811964801 3.1769258536313654 -0.19982654228198948
-3.373204435792063 9.747912981148062 0.1529445142133914
8.958383117909616 -9.691501680855128 0.3177603219596761
9.574288082619073 -0.9423867393839203 -0.19967823373650606
-1.9822003993135784 -0.736624583187746 0.29021210063279257
-9.515305536920359 0.6187899947246187 -0.20516000904332166
2.9771948248230746 -0.36463600248362305 0.4440467480128567
6.5872777804208305 6.652970822256677 0.4867654306989283
-5.932044103876932 5.878836077449387 -0.23873320795198727
-5.139197216375459 3.449320584983713 -0.37212988888731746
1.4174612928479373 2.8097524169793715 0.15889246925026124
-8.699619404897408 -1.4606471934718908 -0.37832099260488683
7.562960085824855 -1.2507424667842937 0.16688625839623095
4.548193869083317 8.193481566236908 0.25267947177330563
-3.7454489433650124 -6.497072847608935 0.14709205031472505
-5.575644237317789 -4.539291861355386 0.42783599120208293
2.5042297907406414 -2.2197687296626656 0.1883434719111925
5.5083703619914 3.0698893988767715 -0.10111616292724768
7.0963425012501204 8.044587803510016 -0.0006930791102699452
1.4673399544808134 5.535815151905732 0.376255340883874
1.618273435650238 2.1132646637921244 -0.49479046961345197
8.742519042665275 2.737038881587811 0.38123705153664345
-2.522383658193701 -6.609882393434312 -0.1388045582713585
-3.7215444891068987 -9.544669039070284 -0.4903967460823644
-6.338779754944808 -4.672279272571296 0.2834819561634976
-7.781910397377006 5.928096551254427 -0.36299446556914405
6.114664038929618 9.704879575206505 0.10901339727357351
-7.132161598877245 -4.610247961952623 -0.0069191507267845065
7.259110887112495 -6.955648444680995 0.22870490966078427
1.5597424907811472 -5.517443182115295 0.1601251511675439
-5.060206703774391 1.3598446905287993 -0.1614441599125317
-7.391096861200117 -1.8643414958079845 -0.01732424600684479
7.833400700276528 3.3308221427895788 -0.10562501483902187
9.935326805984733 7.3751302579579345 -0.22859660587480057
-4.9534682323997625 0.838722717180584 -0.26290968998668407
6.835254786782329 3.526588444032434 0.4335683173042516
-4.940710974359066 -6.820913025438786 0.023816891649436123
-8.23992366389406 -3.8737879503497723 -0.363640983269235
-9.610251771409553 -0.8054330631661131 -0.46402998274003415
-8.97184517055764 8.15461908202338 0.3699972928645322
2.833361679007689 -2.8712027513494913 0.03596869766326127
-5.318242972799522 -1.4244179201753742 0.4552261919521633
0.18079231448418653 7.162771412185641 0.1833943986940968
4.165118774824519 -1.0378510120000435 -0.1488315491893496
9.317248117699151 -1.508168279832553 -0.4743967216712588
0.44632493349937086 -9.040256071769218 -0.017183401042377366
-9.293882304392245 3.228668682887541 -0.09357281168640874
8.70454143621918 -1.4835236846692048 0.4632411213500064
0.2341770200742026 -4.229247254761317 0.07183936221621856
3.702155626727631 7.03319533976974 0.1547312093640285
7.317554512421882 9.991040810930905 -0.04971917487205324
3.22896706661297 -6.715220727421056 -0.26832524429340776
6.487320394609309 5.036182390131383 -0.08008625520875146
-9.93009401823761 -0.9666294597312923 -0.23428305650656223
8.018612643209806 -8.694430265228048 0.20290385052536664
-9.933578120621169 3.627165929599226 0.004113462312720806
3.67482701119053 4.315718807032285 -0.16948341973576164
3.8761775195419723 -6.371552842415557 -0.1344128054792919
-1.1652413978564429 -7.2638488445912275 0.3396368391458864
8.87876668693757 7.538296201155731 -0.21782327680018376
4.347124925527062 0.4816233280739972 -0.3752534654327415
5.473113448159037 -3.506613227268451 -0.17072672257030674
-9.887481047797923 5.567502858855457 -0.44613091009040073
-4.166668258790034 -6.059267140282625 0.25592511749607527
7.931619599137893 -6.088411165869461 -0.2732597691065365
-1.8712537761989285 6.560183604604735 0.07091203986861294
1.1105638165134906 1.7319174924891438 0.19903692790392258
8.262199314330182 -9.681118001741712 0.05911301355119791
-1.9301063624885177 -1.2453552229169436 0.48608776445280766
-4.659244258279891 -4.920324249763626 -0.12964924245242793
5.902279359772631 -7.0419953463846845 -0.40839226635955317
8.809184085197455 7.568424625204521 -0.1988884434757402
-2.944404780956109 -3.355261646374334 0.2951213819215909
-2.0864648779675 -8.922214641765159 0.48543339333853286
-3.9432591086097784 -6.6046317973790725 -0.2929678055817653
0.10827467207739971 -5.542747767249178 0.25383813807182
7.288606719336816 3.497339627672389 0.24423657818099564
-5.586614239462957 1.1732575230142501 0.05480417026360207
2.414127740740133 -1.8749490499252968 0.144453024949331
-9.277523685104747 -0.4546548594659523 0.18633781997572918
6.592032810959484 4.674599911618174 0.2558476631154124
-9.76008383672523 5.674149614398212 0.2706004441187434
-9.940334143235415 4.367007043420919 -0.11289750148656275
5.9572712331485445 7.313310869972781 0.43126371318524004
7.65426641328785 -5.647932916309724 0.17800012649733565
6.263019743860973 9.667681679642705 -0.49142294275140874
-5.509797504910441 -6.555480037824575 0.44282090072097924
-6.444495930341181 5.828929191918428 -0.2651622861987858
-5.3986908510285385 -6.108738206567881 0.2803766824969778
-1.0953484772408046 -6.45614734147407 0.2568453344828633
-2.9879007665013946 -4.289538061090634 0.08948761352727641
7.9274955809141225 7.847569252843272 0.4141219538224883
5.671351690063622 -1.7244516173665048 -0.4118371188959322
-1.9882770668475107 8.859797401120488 -0.008227580242575638
6.013191335314531 1.296934026780125 0.42804573948545166
1.062009215930729 8.661089326673267 0.13308794129063317
5.417330058232363 8.302185641934862 -0.26601473703646694
-2.987149342419155 5.393932777887386 0.3406954517828903
9.599736143999738 3.8787195248756934 -0.17615833562774819
-1.037963596702852 -6.410405119625546 -0.43136784879498213
8.01486350910157 8.58491393888551 0.23204042659343882
-7.2351240750120205 8.996989012431182 -0.476403886142024
-1.9255857510852703 4.587594541133271 -0.47901701190406665
-0.14182731373774082 -4.19768742596043 -0.47619131226997735
0.6523956966343896 5.0766060084870155 0.388860927774205
9.710650942034334 7.335922175164843 -0.024166345909748088
5.1012985247390255 1.1571411955321196 -0.03681399634594018
-1.7177438775402152 7.907537527567726 -0.34490288471009
2.8698791201428193 -8.389863632051345 0.1759934151929935
-9.888652323768854 -3.618256191898226 0.10723829581650257
9.97905721872415 2.4422411352103204 0.47386069428408784
-9.593499438477158 -3.607524841146037 0.18209439631273527
-1.1128423952381503 2.8320153046913266 -0.22333290406807849
2.2139575239518816 -0.5115373962697269 -0.2968622578474799
0.7850985962999442 -3.574916237960302 -0.13499046643958124
2.6069407091382786 7.418829927750291 0.06611794436742846
-9.699145057225184 -1.3548625488872172 0.09681853729035461
-4.395763475016223 1.7541305025434681 0.07103433537059733
4.024344723726838 5.065373719235904 -0.257849539729364
-8.591869917857098 0.3024470375774957 0.2302179914954271
-2.78355749604692 3.93154198404911 -0.005275038109459507
-5.65260901013864 -0.47182245347041984 0.4768944529454642
5.33616588921088 -6.052877833330765 0.386112587316395
-2.0372511164171625 -4.633274013547293 0.3432140094402112
1.893657537260145 -3.148369006699088 0.4452576329848791
-1.5202180035642279 -9.573977429124996 -0.19073325489757487
2.700228287721213 5.490772791575722 0.3932517668661666
4.64658100258986 2.4358952646379013 0.4110532839465606
5.964902844092174 -8.006801621894656 -0.17904727512657226
3.250712740650016 -3.3053634253400954 0.317736980276608
1.0908394515248627 6.4204813689058255 0.023537157379547202
-0.33892924966509597 4.023378960059292 -0.1595067226510043
4.11339684111695 -9.881879264587642 -0.43412550285319673
-8.019777569039764 4.739427129204168 -0.2207284282947004
-9.558591776707129 -9.877230822184105 0.2441143538107048
9.816629098920973 3.669717758477727 0.2740257111903385
-6.40744521260749 4.4167369371367275 -0.36635983946693274
6.603441384714095 -7.713210213367994 0.47331458537770854
-5.74109237275195 -2.780742200754089 0.1380102085254007
-0.09843279470435995 7.6167693563097885 -0.4407265422044975
-7.823681516380008 -4.193557251631434 -0.4943104175324091
6.976839764298891 5.498863530572017 -0.36712142968638595
-6.53311091468259 -9.656123554260187 -0.4834698414658911
9.948911485746642 4.5262249097153955 0.18212850917533618
-4.182788068116407 -5.382153202332232 -0.2788598460601218
-8.1434561080881 6.916852769404855 -0.3111728196175214
-1.5698393148727359 -9.382167291385024 -0.20400670194339166
-8.916604324311361 -2.0683231208472215 0.47463587064670154
1.814659656968491 -7.881868592102426 0.3335763346915056
-3.0335018675539587 -8.085353386002438 -0.06140543458746617
-2.810769490428515 4.871336749668753 -0.40039661391868797
6.379824206123285 -4.287472398619037 0.1479902440772839
1.912065237486857 -8.058065134183646 -0.0605202491326462
5.027014290358494 -1.549922646703978 -0.1423728603953499
-3.490181072566787 -8.018984158563487 -0.2570314728092038
5.634102970334959 -1.5228383618396624 0.3994487722452884
9.861191011473313 8.960334894203168 -0.19686878476643277
7.968940343831132 -6.269882570390301 0.14408403494931543
-5.0056104126232075 -4.023010476027271 -0.35886218539357584
-9.412801569717908 -9.963158580093111 0.21297017564465082
-9.470867473058401 4.13434007441656 -0.07154595795435381
3.3056751998037335 0.05353095460288415 -0.32345258305860125
9.489744550560555 -9.997792140892516 -0.24236736456767882
6.747052152772184 8.51564872253249 0.4498804243777177
8.017994164009643 -3.8022731456463443 0.039543157883947244
-6.3932111398099245 -4.234789817385645 -0.4491934990485036
-3.9868152767987786 7.556070627594615 -0.3574732082286194
-4.7888402511049915 -2.925656194337969 -0.15025002837396229
0.08613081697490443 -7.198026063750662 -0.23849131897782294
9.723001194646276 -2.1638767565981265 0.2620778756976646
9.856646296117255 2.7922069411106936 -0.3297720500252169
7.8645531658687915 -1.8096635137948631 -0.18791980694966937
3.361112860212934 4.467094376858981 -0.20185526645352314
1.3514642596952342 -9.153199076900563 -0.3317191443663634
-2.764668112700579 -6.172543981787486 0.39125633197221776
-6.837660603440283 8.935502371647718 -0.1252453114659623
-2.8023221751549805 -2.7791313523055887 0.46454762210445044
-5.434444474405291 -2.8489065082385405 0.04633130554018783
-8.822854709037138 8.8766187656108 -0.2123138665909723
9.27775753785479 8.196240618021427 -0.18151373853031405
-7.475955693111313 -8.93820093658366 0.38386282228898827
3.4217307685354097 -7.560084173922772 0.156889159710764
5.8264822048286184 -0.6820163514857196 -0.3477092329778143
3.3121577895929555 0.018335339818149166 -0.3499951576422379
7.410162494345489 -1.8735853885516995 -0.2555832940866748
-3.2188798055458534 3.825468017778764 0.38889641507396067
5.688565395532695 9.200895350036621 0.33928574117777544
0.5056601410552943 9.890524597955345 0.03474813560575951
-9.609698775293772 5.709298553505244 0.44460328368398827
-8.170060585258923 -1.000400593571877 0.44961567777894096
1.6727365595387447 -3.3971840673426135 -0.45378708355401176
8.580990761458896 1.5746566055857247 0.44395133993081537
-6.752025168939511 7.444243926256245 -0.1089816762938024
1.7808825939621435 8.252636006585497 -0.17016351121987328
0.4062581366946638 5.379454371027823 0.34054444879005685
-4.83872211348044 -0.7382884422379732 -0.22799853493938738
0.06697102935685528 -6.293638471317546 0.428190563464492
2.9403519458396605 0.3200250042333401 -0.19562349088761133
-0.8753636372884941 6.886719674744587 -0.2346038032774247
-3.6307929514814807 4.752579592266276 0.21796647157160842
3.9640639292015507 -3.4986100862544127 -0.36570280544900036
3.8897749899233283 8.90377418705351 0.18680463764349764
-5.742683453501094 8.079486228678856 0.4425847491906888
-4.625979199236754 -3.3172699360071984 -0.26065823214968886
-3.189240091823729 -6.335263025217197 -0.11452286713802395
6.426083161691249 5.785817733147617 0.14447312563792747
6.442297189951361 9.264628828282152 0.45182393729200765
-8.854955503096384 -0.45419351615096204 0.06249640539150236
4.041553679837538 -0.09141203734940007 -0.17028588281746293
-4.773290086041744 5.1089712628344905 -0.24240578309895133
-0.6631824486773858 0.6272990359100472 0.23306826383481616
8.315210102221542 9.449317850935785 -0.34686300713070795
1.1415922864077999 -9.272492614412968 0.17805088148144166
0.190527120727209 3.1736170039677347 -0.39898002394517407
2.9523574475529184 2.9841801487656188 -0.1513108908973071
3.193551228232261 0.39819746872871065 -0.08239316982363809
9.465170867952367 8.537409964184878 0.49864118135537083
-4.089774598144227 -6.899462838065878 -0.4982120409287847
7.543125292819585 8.494681276961725 -0.006146100643110053
5.1360224625798665 -1.4065183066702573 0.47819795938262677
1.3268285712573764 -6.50393496811509 -0.2998293488929964
2.510842918235351 -1.8734094898582025 -0.29837711543829126
-0.6622006493699732 -7.57213774716651 0.46254170487414414
0.050327135754370644 -4.052102901410071 0.20045534285767075
5.712699700791772 -5.623287204860887 0.027532681327682607
3.9967775065159863 -2.1807948553865764 -0.36744144308593263
6.653837942676471 5.666489904273398 0.11459199086499927
-4.864978525283041 9.251526219084685 -0.31963029836561496
8.985553180605255 0.49945212994253296 -0.34513377715881755
-8.268798398103407 8.510777924407165 -0.1062218111451565
4.4229054371393755 -5.310943703391684 0.2986493505273433
1.3561045746198026 1.8597057225567841 0.43972328811682915
3.707567126481809 0.2848861605328459 0.0535258526827479
6.436039695693559 -8.125285409129674 0.30514824470530244
-6.932667213398311 6.661214280186151 0.11883936034518705
0.8350206239869493 -2.3249229244581464 0.21032212303555375
7.909471504939955 7.997819471572779 -0.38628287686386753
-4.594886323209777 5.900925684942758 0.41161153110181603
-8.799959985835953 -2.0317963352007595 0.10291022767937397
0.10288285992600876 4.956439332897649 -0.15669622460780386
-4.571418880919575 -1.0197863793650068 -0.31958995559126413
8.511246249074553 2.554333775069397 -0.16424024138361848
-8.916191409866666 5.228620836544435 -0.07380237539944268
-6.439991186792831 9.015137013423523 -0.32483674062605594
9.756801278139786 5.943080118326126 -0.04472424747284465
-1.1880886046810275 6.374249798203639 -0.1817471844165619
2.8028722986197447 5.427329467739732 0.42181678001947265
-9.105795340164493 0.5619688545225276 0.09231683364831444
4.53336586328196 9.780784861023754 -0.032310416948420295
9.17009666183229 2.3847034591745278 0.2662163460494801
-2.9823431081834206 0.44864761661111885 0.19390134877289644
3.0741882379581362 4.450745547009278 0.4248991638950588
8.305185835546947 -4.0295715099169165 -0.08101146842025009
7.319931978343316 3.704480403865883 -0.227259136142414
-4.942607639185248 -2.6622233568429188 0.08646343702879278
-5.882750885273548 -9.052563783387185 0.3261697358479495
-6.086744248162807 1.5283332499626496 0.14853521561080485
-6.83096388554776 3.291517841692059 0.15879193010567094
-9.847119492329465 4.593037950551288 -0.3500395307431923
-1.9318591208814002 -3.0002864360085724 0.2910402981919912
-3.5629194552077177 2.284896018471489 -0.47478199665027
-2.0434550852039246 8.647860786676691 -0.44169323486577905
-1.1970699725675047 8.185371116707284 0.3315925701369402
-9.912043159039845 9.669562324622806 0.25612999920100077
2.8055219718977824 -0.6728382811618534 0.4767727894725522
2.8498248391028334 -1.835718363696099 0.17310801879515525
-6.243387519110355 0.10928787697505982 -0.1676121359268371
3.1830753826682283 6.326111514055867 -0.46183758441523604
1.2471895464129403 -9.244216559146661 -0.0005928716538955436
5.99195001148907 -5.548791931528343 0.07657329628548515
-6.741674970868363 -6.577489493013282 0.12941351711958138
0.056664103274270516 3.3899530606908215 0.21032527278972368
-5.3389242654220315 -5.500785124403766 0.21937578345837006
4.572692475900373 8.505143873618053 0.42725303889199673
5.511227814566279 -2.2527782409558057 -0.001773312365878299
4.259602300768886 1.90061866616057 0.12378381582154074
0.7190016510623174 5.5636331892170645 0.49990693884279747
-3.210978727294373 9.761169983850085 -0.2952593074897444
-2.5059493414741247 7.5696782006152326 -0.4217345093252459
-1.1801768252513973 5.346210533218228 0.18725790281550625
-3.607167669898006 -4.5005095144283676 -0.4858988698404816
1.7962279225607762 9.395902489046033 0.4452092576911325
-2.871451475554389 -5.644373763117461 0.48275623088563235
-8.743852524512693 -8.708969674306806 0.25905112706234734
3.954468119224824 7.3869027012401425 0.07905379180163874
-2.1516134586514157 -5.154931727554812 -0.30597224579535287
-2.995997981577238 6.512660129320185 0.13232885616298462
-9.664424208191454 5.05206340387684 -0.4677435252285411
1.6800205116242246 -9.132421148436496 -0.11962634724686949
-3.212582868819254 -1.7037845418913946 0.272090660057687
5.206943030387903 6.447684388536274 0.2852236322637445
1.8940499381019649 3.02294314852219 -0.44412792572848325
-6.5555891478966615 -2.6921897753836843 0.44305504836211207
-6.971907240853383 4.326517395671177 0.3415239206557821
0.954137928081991 -3.4913737535702367 0.45243660505142724
9.583172135333974 9.250416277474947 0.33616977065461096
-1.1295795848945467 -8.57982622471695 -0.19387430712091913
-2.5832249200005446 8.443005065671876 -0.11905037356849613
-7.6177005281784975 5.403869137062349 -0.27730745091869746
1.4340022487726234 -4.3404508522672725 -0.12108207494282619
6.504542374373862 0.8579826436514804 -0.12108860003106992
-9.527396008337261 7.2937165015449 -0.3163875637909974
4.376248623690156 3.304181577997497 0.30177875035375423
4.091750505335982 -6.2730737509951195 -0.4167391899836803
2.0607972732503974 8.842073643655574 0.2754049613141686
0.8880349328533672 9.433853635517487 -0.2041922178581188
5.034188653380692 -4.539150115300947 -0.2543629600907754
5.934967058736106 6.73825997701406 -0.16218931060941888
4.4757787025287 -9.161046271439288 -0.1443721904239732
-0.5585048238358699 -3.4618108403742465 0.30461839570900784
-2.327148565652566 9.23154544420614 -0.18872652703447335
-1.600473817537587 -7.062172457063531 0.3874436432945997
9.60291503406074 3.304874095072279 0.02095458208159373
4.942944688598436 5.256864109835732 -0.4861147115579372
1.903716110727249 -7.0335631022019385 0.42701749698012004
-7.569001838414248 3.042461840888082 -0.30934125306395466
2.2674576365638526 5.483154294212325 -0.022122704471047694
-1.8251598715552415 -8.397350788741926 0.02681671534640928
-1.0785951958760105 5.8781882099076945 0.021868090261487616
3.100636214050329 9.450761904777423 0.06723455066729567
-7.21015909331868 -4.992509828478296 -0.18020069846134734
-8.660041843053962 9.871157878179783 -0.2751474555053902
-4.119486136630126 -7.275649881215842 0.014806119715192523
3.9000151881513734 2.7050233195665143 0.1452530076697761
5.931190974522401 6.639822180726586 0.13606603034235087
-5.349543460120401 -7.214171661068203 0.1105008082705935
8.414526396903899 9.219781198311367 -0.013944749513414068
-2.363567997986773 -5.229348765954198 0.08487046695148293
-5.868713990284025 4.170115528516728 0.4556588049247625
-8.140466807762392 -8.290174065350058 0.049395241432890424
6.386136263347144 -6.604203218416211 -0.019326408552583163
3.360625641581885 -7.674753536846857 -0.2984387602093588
-8.245153522706673 9.371307161976734 -0.2243625795380998
-8.252839581602164 4.8089017174552815 -0.02989687041632938
-0.002048884196474532 -3.12922768049739 -0.09192620298657472
-9.971623566373646 6.781385507897696 0.4886695430605096
-1.4143117497806976 0.37481112165089137 0.49873964506844504
-6.425595134180686 4.034721766184351 0.031826217055132666
4.621850954265884 8.124463627959145 -0.472147283483186
-7.568739018722699 -9.846405771286724 -0.2926468574418468
-6.377534651901895 7.583785273026969 0.11318721641551155
-5.976527254431501 -2.7113149385045716 0.3168851153209161
9.943513816727517 2.4715376874182873 -0.318024338263141
3.631377303457482 -5.159166445680691 0.4423708194951651
-4.698314798306704 5.8496768834184785 0.41353402074527423
9.265912156325346 8.23451206272956 -0.2565069870539727
-0.5971187195416245 -0.6613255076999387 -0.4174601858155944
4.585791654029769 -3.8068765196237297 0.33300109461232985
-1.7548256048341386 -0.29484237501589305 -0.1573235777285258
8.335214411777152 8.304514303902621 0.044719408505194624
-0.7154645085354296 -5.469617422696745 0.41312668196065383
1.3245189856367112 -1.8833546284943115 -0.3474951143806657
0.13779657795861056 -3.561614209223592 0.33066761353498586
5.774158112479091 1.9860003649299767 0.21112196224134294
