# .PCD v0.7 - Point Cloud Data file format
VERSION 0.7
FIELDS x y z
SIZE 4 4 4
TYPE F F F
COUNT 1 1 1
WIDTH 1523
HEIGHT 1
VIEWPOINT 0 0 0 1 0 0 0
POINTS 1523
DATA ascii
8.9201469 1.8821067 -0.74687588
8.8463583 1.8882384 -0.73881435
9.1775885 2.4513304 -1.0328946
9.2766323 2.4473529 -1.045462
9.3706017 2.416914 -1.0419437
9.4768553 2.4287133 -1.0441715
9.6731205 2.3785572 -1.0446218
9.1868591 2.4961038 -1.0189338
9.2937717 2.5220354 -1.0500109
9.6830006 2.4064505 -1.0418144
9.2997637 2.5478094 -1.0444995
9.3975477 2.5197554 -1.043406
8.7255859 1.3952708 -0.28249905
9.1438913 2.2556152 -0.83441472
9.5080061 2.5341563 -1.0466611
9.7205906 2.509726 -1.043497
9.1301832 2.1781409 -0.77051044
9.3240042 2.6523917 -1.0421672
9.4257517 2.62676 -1.0433892
8.4498672 1.5119718 -0.26989064
9.5384951 2.637109 -1.0436138
9.6462212 2.6214542 -1.0506694
9.343935 2.7384524 -1.0476979
9.6566925 2.6533988 -1.0475808
9.7650785 2.6300559 -1.0512874
8.5059719 1.5247009 -0.27394262
8.6212292 1.5012435 -0.26842913
8.6745176 1.4963646 -0.28513953
8.8297415 1.4617479 -0.37171653
9.1256771 2.1481225 -0.71813047
9.3523569 2.7745731 -1.0463752
9.4560375 2.7410884 -1.0440599
9.6682997 2.6884658 -1.0465202
8.4424038 1.5785104 -0.26919582
8.503582 1.5621384 -0.27004698
8.6750593 1.540997 -0.2855185
9.0482569 2.1738663 -0.66862965
9.5724354 2.7508364 -1.0427655
9.7905884 2.699945 -1.0478652
8.9081316 1.6298355 -0.37919983
9.3725777 2.8613338 -1.0490404
9.4752712 2.8133833 -1.0395335
9.0538349 2.2013395 -0.64919186
9.598073 2.8361285 -1.0449686
9.7095633 2.8117986 -1.0482739
9.3938637 2.9522679 -1.0510237
9.1803112 3.0565622 -1.0488096
9.5127916 2.9536059 -1.0454261
9.622858 2.9184427 -1.0433875
9.4144936 3.0399206 -1.0496267
9.6369038 2.9648657 -1.0445611
9.7523689 2.9391615 -1.0479952
9.8656273 2.9024601 -1.0465449
9.1955729 3.1454527 -1.0463159
9.4247952 3.0836425 -1.0487098
9.5379419 3.0472922 -1.0474957
9.436821 3.1347322 -1.0502324
9.7846546 3.0344951 -1.0510877
9.9009361 2.9965739 -1.0498364
8.8002234 1.700682 -0.28537145
9.5643158 3.1451621 -1.0485768
8.9221697 1.6880612 -0.28403202
9.8136225 3.1202805 -1.0463252
8.4633112 1.5739082 -0.15664986
8.7422419 1.6916287 -0.24838093
9.0003777 1.8064036 -0.36152139
9.4732418 3.2887449 -1.0512139
9.5937309 3.2540073 -1.0523852
9.8317995 3.1735706 -1.0482101
9.9550905 3.1406403 -1.0506425
8.8067904 1.7945315 -0.28980872
8.9969692 1.7702414 -0.30539086
9.4871111 3.3474197 -1.0536355
9.6066456 3.3015888 -1.0500265
9.8476143 3.2201157 -1.0461617
8.52318 1.5646427 -0.15009734
9.1204758 2.0950406 -0.54130232
9.6215219 3.3563132 -1.0503665
9.7420216 3.3099985 -1.0462326
9.9923773 3.2394645 -1.0494162
8.6368685 1.5622933 -0.14343593
9.1189222 2.0663137 -0.41962782
9.5134478 3.45805 -1.0531899
9.8867092 3.3341908 -1.0500531
10.011093 3.2890282 -1.047922
8.4532185 1.6661553 -0.14937922
8.6931849 1.5510484 -0.13569653
9.6523733 3.4696674 -1.0506884
9.7786102 3.4291584 -1.0501438
8.5138388 1.6720116 -0.14830667
9.5417376 3.5765676 -1.0526255
9.6703653 3.5356627 -1.0531205
9.9261351 3.449033 -1.0505984
9.0156651 1.8727666 -0.28413239
9.5567589 3.6394861 -1.0531279
9.6845198 3.5873001 -1.0492301
9.8177423 3.5561562 -1.0536524
9.9459009 3.5065148 -1.0501359
9.5709352 3.6986797 -1.0520167
9.7043982 3.6602268 -1.0544503
9.8345509 3.610662 -1.0514152
9.9668694 3.5673602 -1.0511318
10.102808 3.5294826 -1.0542022
8.8935432 2.0007091 -0.2905319
9.9904547 3.6355729 -1.0537537
10.125908 3.5899186 -1.0539534
8.8975296 2.0387013 -0.29121968
8.9667072 2.0111313 -0.28976199
9.0347404 1.9850719 -0.28911325
9.6046429 3.8396463 -1.0551919
9.7387934 3.7855339 -1.0521747
9.8773108 3.7488537 -1.0554909
8.3951464 2.0460961 -0.21300164
8.7543106 1.7127781 -0.13891909
9.6207924 3.9067125 -1.0540729
9.7590075 3.8591633 -1.0542468
9.896615 3.8110418 -1.0533823
10.034162 3.7618861 -1.0521722
10.177785 3.7250059 -1.0570436
9.6386795 3.9811902 -1.0549842
9.9203968 3.8876183 -1.0562233
10.059211 3.8340297 -1.0537988
10.202469 3.7892768 -1.0559311
9.9409466 3.9536178 -1.0539298
10.085584 3.9098542 -1.0559453
10.228598 3.8571427 -1.0554398
8.5620041 1.8930627 -0.14112952
8.6341858 1.7969719 -0.11734816
9.8201332 4.0809436 -1.0551202
9.9660053 4.0340743 -1.0563492
10.10956 3.9787443 -1.0544091
10.257551 3.9321189 -1.056874
8.9959898 2.2237351 -0.29546574
9.6945324 4.2128124 -1.0550264
8.6330824 1.7709082 -0.13210818
8.8451118 2.3210464 -0.29389635
9.714448 4.2951994 -1.0549426
8.7664547 2.3952358 -0.29213801
8.9269228 2.3104343 -0.28463927
9.0029964 2.2664328 -0.27963266
9.0773783 2.2275977 -0.27652267
9.1503983 2.1934707 -0.28951094
10.344918 4.1578712 -1.0556489
8.7844048 4.3092799 -0.88546598
9.4326 4.5162468 -1.0313636
9.6042185 4.5448747 -1.0612551
9.7588139 4.4788666 -1.0581554
9.8230572 4.089704 -1.029297
9.9833736 4.0895228 -1.0483093
10.134854 4.0512986 -1.0533913
10.378363 4.2439446 -1.0572484
8.4935379 1.8962692 -0.14565536
8.5776863 1.8154123 -0.056183964
9.4765434 2.1019201 -1.0386764
9.0399618 3.6635678 -0.68711555
9.5658541 2.0786602 -1.0378666
9.1657581 3.6246681 -0.69015491
9.624651 4.6433315 -1.062622
9.7824564 4.5764971 -1.0599617
8.7773657 3.028389 -0.43728784
8.8793888 2.9493899 -0.42604455
9.4351473 4.5212674 -1.0018853
9.6451664 4.7419643 -1.0627898
9.8070402 4.6780152 -1.0618039
10.131359 4.0417562 -0.93442667
10.446957 4.4200745 -1.0584884
8.5788708 1.8331541 -0.037856191
8.8808002 2.9432137 -0.40450141
9.667964 4.8519974 -1.0653561
9.8317366 4.7797093 -1.062405
10.486268 4.5207686 -1.0617306
8.7937088 4.1412797 -0.72114289
9.6901569 4.9584727 -1.0653992
9.8261862 4.0837674 -0.82685149
9.9798021 4.0699725 -0.8402077
10.130677 4.0393462 -0.876683
10.522899 4.6145363 -1.061332
8.955615 2.5836756 -0.2892817
9.6042929 2.1876595 -1.0375248
9.1901226 3.7728977 -0.63616204
9.3249149 3.7829328 -0.68124926
9.7139282 5.0726347 -1.0664444
9.8866558 5.0059638 -1.066811
9.2031879 3.8671076 -0.63821793
9.7392874 5.1945152 -1.0683455
9.9117002 5.1081634 -1.0635252
10.609079 4.8345766 -1.0673577
9.2158966 3.9576511 -0.63804162
9.76478 5.3165894 -1.0687494
9.941206 5.229207 -1.0645367
9.9791689 4.0663562 -0.81083953
10.131153 4.0397568 -0.82038105
10.653055 4.9466529 -1.0688661
8.8009911 4.3057232 -0.71196949
8.8907137 2.975621 -0.31606612
9.6080208 2.5064714 -1.0456964
9.2263746 4.0291858 -0.63146019
9.7918835 5.4464068 -1.069815
9.8269472 4.0837135 -0.79868591
10.697155 5.0588975 -1.0689702
8.8929863 2.9879611 -0.29984584
8.980484 2.7974007 -0.26096478
9.8206205 5.5839901 -1.0713907
9.8212376 4.7018614 -0.84442616
8.519125 1.8414775 0.0030829012
8.5874491 1.8167844 0.024612874
9.1784325 3.621387 -0.49455014
9.4557667 4.56216 -0.76793337
9.8487511 5.7179832 -1.0702379
8.6440563 1.7933004 -0.034121901
9.6956739 3.1583436 -1.0477635
9.3041286 4.6172996 -0.70229113
9.4725914 4.6450944 -0.72876966
9.830759 4.0853333 -0.68758571
9.9805031 4.0653219 -0.72659624
10.131675 4.0389614 -0.73627985
9.8321257 4.7311497 -0.75722325
10.90168 5.5777512 -1.0744435
8.942111 3.8024631 -0.41397598
9.6650724 3.0578091 -1.045818
9.3051424 4.6086755 -0.6696713
9.3470583 3.8375678 -0.46743777
9.9482508 6.1933494 -1.0750709
10.959188 5.7232223 -1.0759051
8.9434166 3.7881708 -0.38609216
9.9852695 6.3700309 -1.0771114
11.022541 5.8833342 -1.0793707
8.526763 1.8496034 0.070518225
8.6749182 4.3398709 -0.44998643
10.02248 6.5469408 -1.0769559
11.084642 6.0400357 -1.0798665
8.5200062 1.9484116 0.096968442
8.8306999 4.509954 -0.47524109
10.064425 6.7470193 -1.079914
9.839324 4.743659 -0.66565621
11.156888 6.2222862 -1.0847696
8.9114885 1.4331306 -1.0264581
8.1952839 4.61201 -0.39440343
8.5885429 1.9220889 0.094369486
8.6596746 1.7995332 0.11198193
8.6796398 4.3821054 -0.40310761
8.9444733 3.7697792 -0.3575519
10.089149 6.8592138 -1.060577
9.8387966 4.0895715 -0.49681249
9.98876 4.0729604 -0.50882578
11.22366 6.3902407 -1.0837926
8.0994596 4.2061515 -0.2747418
9.1066837 1.3588599 -1.0258683
8.3696709 4.4966674 -0.36279622
8.6775274 4.345387 -0.42340818
8.8210421 3.8730469 -0.31570211
9.0683212 3.6505167 -0.29768702
9.8098211 3.9755485 -0.41693088
10.135704 4.0353026 -0.46201697
11.294867 6.5692773 -1.0832832
8.9771366 1.4093163 -1.0339931
8.2181597 4.477881 -0.31301376
9.2949686 1.2661544 -1.0192007
8.5382738 4.2965345 -0.3149201
8.6873045 4.2233672 -0.31756511
8.9476223 3.7172744 -0.27429584
9.2363758 3.9508212 -0.32526651
9.363081 3.8788519 -0.32566705
9.4966707 3.8637691 -0.36226067
9.8527489 3.6290064 -0.32861903
10.110886 3.9627526 -0.41867021
8.9260569 1.5249763 -1.0312375
8.2027559 4.6314235 -0.31197777
9.1835432 1.3808594 -1.0291417
8.3738089 4.5183654 -0.3109118
9.3289766 1.3711149 -1.0316797
8.5307837 4.5017452 -0.32517144
9.250514 4.0486484 -0.31981054
9.3810844 3.9799728 -0.32159886
9.5050669 3.8919227 -0.31840965
9.6320143 3.8347163 -0.32051703
9.7482529 3.7429926 -0.31587949
9.8665648 3.6705065 -0.31433746
10.079368 3.8712621 -0.37291065
11.319016 6.6284137 -1.0527015
8.0130644 4.8208642 -0.29549447
9.0163946 1.620026 -1.0295751
8.1932173 4.7382197 -0.30062911
9.1653461 1.6058507 -1.0271087
8.3651772 4.6568189 -0.30588594
9.280242 4.2675252 -0.33550808
9.4207993 4.2131023 -0.34125039
9.5535231 4.1272635 -0.33984068
9.6885414 4.0681515 -0.34268317
9.7951441 3.9098752 -0.32574269
9.9133015 3.8168707 -0.32089952
10.029531 3.7277448 -0.31659529
11.309829 6.6001568 -0.95877337
7.9607229 5.1813593 -0.3210291
9.1336422 1.8116392 -1.0318543
8.3475065 4.9055781 -0.31698027
9.2680407 1.6965649 -1.0350441
8.5228882 4.7831769 -0.31516466
8.6910372 4.5089378 -0.28664723
9.2962246 4.3774304 -0.32834402
9.439167 4.3146267 -0.33316115
9.5790997 4.2473292 -0.33612278
9.7181406 4.187243 -0.33947185
9.8328562 4.0428867 -0.32669243
9.9484549 3.9259412 -0.31798664
10.07358 3.8502774 -0.31736901
9.1828299 2.0335922 -1.03938
8.3359632 5.0837493 -0.31402823
9.2980804 1.8051771 -1.0376236
8.519619 4.9141893 -0.30601904
9.3173389 4.5264683 -0.32675788
9.4512529 4.3773413 -0.31675783
9.8738356 4.1874018 -0.32815441
10.000191 4.0876079 -0.32401386
10.132157 4.0136881 -0.32475165
11.308105 6.5929594 -0.91311085
7.9551072 5.2656245 -0.26890305
8.8565836 4.7550602 -0.28593376
9.1783733 4.6956797 -0.31017032
9.3295288 4.6052284 -0.31126633
9.4787569 4.5333514 -0.31591812
10.175179 4.1327629 -0.32141718
11.292972 6.5483923 -0.81642759
8.1557188 5.1697526 -0.24205998
8.3401146 5.0727901 -0.2807174
9.6228628 4.4490819 -0.3172743
9.7640457 4.3681989 -0.31808677
9.9060631 4.2945409 -0.29209247
9.9084644 4.2983956 -0.265654
10.045239 4.2198863 -0.26726684
10.205282 4.21488 -0.30887106
11.286905 6.5294456 -0.7681185
8.8578005 4.4945087 -0.15942246
9.0077105 4.434454 -0.16680685
11.278531 6.5011168 -0.67785132
8.1593866 5.1661987 -0.21052191
9.1840982 4.6609459 -0.18609026
8.9581003 1.724651 -1.038408
11.275057 6.4884224 -0.63278377
7.9924865 5.1338053 -0.092653722
8.1700621 5.1586208 -0.11415139
8.3495169 5.0741658 -0.18639758
8.7040634 4.7632985 -0.15051723
8.8644915 4.5690017 -0.11270258
9.0109138 4.4137692 -0.10830501
9.1741734 4.5343595 -0.1395095
9.9136763 4.3016458 -0.18275693
10.075067 4.3022981 -0.19794574
10.217804 4.2409554 -0.23128936
9.7974377 4.4677896 -0.16341794
10.221235 4.2439489 -0.17652336
8.7097483 5.0280437 -0.091259867
9.3398771 4.5892706 -0.13340205
8.9607372 1.7396677 -1.0332236
8.1865788 4.8215108 -0.28428581
11.275859 6.4864798 -0.58973706
7.9993343 5.1518846 -0.00020667911
8.1732321 5.1583138 -0.082411617
8.3592739 5.0658107 -0.091367453
9.02349 4.5469313 -0.068837583
9.1720524 4.4903235 -0.1052396
9.4838028 4.5062056 -0.16711739
9.6308804 4.436985 -0.14429855
9.7995119 4.4624672 -0.1055114
10.123939 4.4528646 -0.1927022
10.240526 4.2910848 -0.12807679
8.9594622 2.1417794 -0.68941283
8.1693382 5.2749834 0.0021001399
8.0747976 8.9000177 -0.3527402
8.5097551 5.8357005 -0.089196056
8.6949959 8.031476 -0.32790235
8.8715105 4.4857969 0.0098523796
9.1893129 4.6021118 -0.032847404
9.7777281 4.3649354 -0.06495446
9.9139357 4.2972965 -0.15439552
8.8298149 1.8901582 -0.94576693
11.063917 6.6006465 -0.41005126
11.279479 6.4827042 -0.46149483
9.1025019 0.54603904 -1.0204444
8.0008316 5.1627903 0.030268043
8.1116705 8.4799213 -0.26148465
8.5122833 5.8509641 -0.054492861
8.6986704 8.1197891 -0.28612754
8.8759995 4.5639768 0.030169964
9.0291719 4.5315132 0.017983049
9.2049637 4.7394252 -0.018197984
9.3451662 4.5826793 -0.045706093
9.4939499 4.5095811 -0.024587601
9.6372461 4.4330478 -0.030890316
9.7791195 4.3636832 -0.036967576
11.064847 6.5972867 -0.36671987
11.280778 6.4763594 -0.37592879
7.4201331 9.1750994 -0.19955817
7.7868581 8.7890682 -0.20213059
8.7160587 5.7810955 -0.032069474
8.8797417 4.6141925 0.053970993
9.056632 4.9274235 0.009070158
9.2336607 5.0074663 -0.014540642
9.5175743 4.6376143 -0.0094082654
10.249311 7.4048471 -0.3217347
9.8150835 4.5052829 -0.024828464
9.9244862 4.3072948 -0.017697483
8.8387976 1.8982812 -0.84604287
11.091104 6.6647749 -0.33206537
11.320961 6.5724878 -0.3456957
7.4253345 9.1755962 -0.14351931
7.79175 8.7894011 -0.14821598
8.1194496 8.5005789 -0.15844092
8.7069273 8.1522236 -0.18777338
9.2533302 7.9481292 -0.22474828
9.3862944 4.8428297 0.016314209
8.4215851 1.2594754 -1.0284969
10.268458 7.4828591 -0.28241459
9.8211966 4.5230956 0.0019944608
10.120481 4.4280071 -0.10319313
7.7931266 8.8211412 -0.096351057
8.4192638 8.3395605 -0.17478088
8.7097626 8.4432211 -0.15883651
9.2667007 8.0951366 -0.18692878
9.2382135 5.0298252 0.014798909
9.390379 4.8569541 0.045499176
9.5257215 4.6618314 0.046902984
8.4222336 1.3190137 -1.0266873
10.295702 7.5996623 -0.24581501
9.8179131 4.5020485 0.032808274
9.9685345 4.4589829 -0.0064966679
11.22542 7.0277605 -0.28487775
11.611836 7.292922 -0.34059301
7.417891 9.2626724 -0.092765421
7.8070302 8.7374439 -0.037444144
8.1271181 8.5199585 -0.054980725
8.4276943 8.3469334 -0.072160095
8.9815836 7.7151318 -0.082289785
9.5269823 7.863565 -0.14374945
8.2665386 1.5887977 -1.0277255
10.076717 7.8780069 -0.19639102
10.119038 4.4035692 0.013170004
11.615711 7.296339 -0.29352489
7.4304638 9.2461576 0.021058232
7.4138508 12.410357 -0.17415771
8.1293154 8.5510769 -0.0043137968
8.4317055 8.354126 -0.021045417
8.9859667 7.7341123 -0.035519868
9.2746677 8.0979071 -0.085863918
9.7858047 7.7630715 -0.16047242
10.080083 7.8772969 -0.14647129
8.42136 1.3698909 -1.0306938
10.313259 7.653079 -0.15354308
8.7490625 1.2229125 -1.0259686
10.564873 7.5541153 -0.16883317
10.078568 4.8390064 0.014446765
10.382673 5.2197871 -0.0051063597
11.256986 7.1015058 -0.20097777
12.72252 10.067331 -0.51925814
6.9158669 12.868999 -0.075572342
7.4212518 12.402669 -0.09769997
8.0941687 9.0959139 0.021456808
8.4174423 8.8439941 0.0048001707
8.7213507 8.8205013 -0.0228028
9.5353451 7.8735251 -0.045731872
12.745517 10.11571 -0.45821497
7.2325449 14.222602 -0.093519598
7.8908391 11.980544 -0.046597153
8.221241 14.229232 -0.18975392
8.725728 8.8232536 0.031696588
9.1147757 11.508076 -0.13866946
9.6142778 13.068556 -0.26347795
9.5384941 7.868114 0.0039273202
9.7936983 7.7690353 -0.063074738
10.450474 10.015551 -0.25065878
10.314569 7.6272097 -0.054612964
10.573557 7.5633454 -0.073205382
10.388034 5.223453 0.061475158
12.724195 10.052608 -0.3870714
7.2407122 14.214457 -0.0060552657
7.7519374 14.00523 -0.047367841
8.2398129 13.917614 -0.089304596
8.7241926 11.674991 -0.037156612
9.1191492 11.471378 -0.065295368
9.6170168 13.016502 -0.17911527
9.5959711 8.3948803 0.025350422
10.10035 4.8879724 0.13439929
10.396756 5.243979 0.093414485
12.72938 10.055741 -0.32203886
7.1989698 14.674948 0.068548054
8.2378769 14.160609 -0.011529356
8.7299042 11.661784 0.035710901
9.6274719 13.079535 -0.10045573
10.095683 13.226363 -0.14709601
10.459243 10.013965 -0.12381348
10.323286 7.6528931 -0.007864207
10.596372 7.6295552 0.019146711
10.792011 7.3291383 0.013189077
11.041541 7.248805 -0.0045026243
12.734528 10.058462 -0.2569913
6.6529632 14.916881 0.2021856
7.2089205 14.649888 0.15898916
7.7381096 14.398123 0.11537418
8.2446928 14.163413 0.075869173
8.7331839 13.859068 0.040214628
9.6575184 13.429219 -0.031712025
10.075937 12.974717 -0.053941518
10.137056 10.186028 -0.036513001
10.776087 9.7838049 -0.016813785
11.085328 9.6058044 -0.036480993
11.045164 7.2503929 0.04187429
11.357668 7.3413925 0.012998104
12.736661 10.053364 -0.19143191
6.6605482 14.915121 0.29319844
7.7455087 14.392385 0.20403275
8.2510405 14.177657 0.16303107
8.7397766 13.953297 0.12382361
9.2103262 13.664268 0.08789596
9.6634703 13.423522 0.05239144
10.4678 10.010789 0.0029199421
9.3219595 1.8914485 -1.0341702
10.780079 9.7816315 0.045319885
11.935387 11.34145 -0.091924816
12.390789 10.198658 -0.099327832
6.6691732 14.904862 0.38423488
7.2239628 14.641815 0.33852562
7.7528458 14.386092 0.2926192
8.2584476 14.159384 0.25084159
8.7464113 13.947028 0.21042868
9.2165756 13.658014 0.17306206
10.114154 13.225246 0.10189852
10.145922 10.182013 0.091823727
10.475498 10.002086 0.12964186
11.094765 9.60886 0.085683554
12.069439 10.427517 -0.07889393
12.746736 10.056764 -0.061347872
6.6755147 14.909883 0.47515139
7.2320151 14.63097 0.42822656
8.2655029 14.148551 0.33835384
8.752984 13.936218 0.29700467
9.2230539 13.659223 0.25802526
9.669919 13.425276 0.13620874
10.12006 13.222511 0.18489245
10.154613 10.176384 0.22000727
10.478244 9.99123 0.19307324
11.731175 10.586761 0.080807239
12.077246 10.422503 0.055188864
12.395848 10.200146 -0.033635825
12.750218 10.054144 0.0038823187
6.6834593 14.902452 0.56604803
7.2391787 14.627521 0.51782262
7.7667871 14.379826 0.46954051
8.2722225 14.145168 0.42570695
8.7594976 13.924866 0.38344035
9.2293262 13.655901 0.34303883
9.6823616 13.423221 0.30394498
10.15889 10.172968 0.28403911
10.478865 9.9681606 0.25661156
8.5312138 4.9832883 -0.1615825
10.785171 9.7414703 0.23223767
12.401768 10.190603 0.098179966
12.755144 10.054819 0.068918616
6.6919518 14.890498 0.65679312
7.2467504 14.619538 0.6073271
8.7660084 13.920972 0.46973136
9.6881371 13.415417 0.38781872
10.125914 13.219251 0.26784757
10.163722 10.173106 0.34797838
10.479467 9.9446888 0.31985262
12.75709 10.047656 0.13421461
6.6981225 14.893815 0.74770308
7.2533708 14.618946 0.69686997
7.78054 14.371349 0.64628065
8.279211 14.133245 0.51298308
8.7723904 13.912539 0.55595827
9.6943645 13.415072 0.47160372
10.137074 13.207197 0.43363073
9.0065565 1.954563 -0.77457631
10.478579 9.9129496 0.38286611
11.111284 9.6025991 0.33021405
11.947517 11.29121 0.27149436
6.7058721 14.884679 0.83837366
7.787034 14.370272 0.73466349
8.2923489 14.123749 0.68736231
8.778717 13.907568 0.64213264
9.2480087 13.646739 0.59783351
9.7005301 13.414201 0.55538464
9.0892372 0.74324363 -1.021051
10.167909 10.168888 0.41194323
8.5358887 5.0065331 -0.10241684
10.803551 9.7844801 0.35514626
11.115782 9.6020184 0.39127585
11.950639 11.28288 0.34374139
12.098518 10.42644 0.32258198
12.417833 10.193866 0.29504231
12.763422 10.051225 0.1991134
6.7119198 14.88686 0.92931581
7.266449 14.616083 0.87597048
7.7934604 14.368639 0.82304609
8.2988253 14.118181 0.77447867
9.2541981 13.645288 0.6827457
9.7063541 13.408817 0.6391176
10.149213 13.205006 0.59923446
9.0939007 0.76438946 -1.0190874
10.176153 10.159252 0.53971732
10.48179 9.9044542 0.44542417
10.811804 9.7789888 0.47908691
11.121212 9.6049356 0.45232549
11.952602 11.270253 0.41589865
12.098466 10.410212 0.38957497
12.421273 10.189116 0.36074397
12.772985 10.049721 0.3291547
6.7190065 14.880552 1.0200025
7.2733011 14.609836 0.96537721
7.8003612 14.358474 0.91117334
8.3052483 14.112072 0.86153936
8.7849941 13.902058 0.72825885
9.2603321 13.643306 0.76765263
9.7129869 13.414877 0.72302556
9.0473166 3.777878 -0.74941015
10.156062 13.211082 0.68216264
10.181332 10.161754 0.60363382
11.713808 10.419057 0.48631272
12.052588 10.252815 0.45651147
12.427398 10.191479 0.42635641
12.770195 10.029818 0.39429793
6.7260246 14.873679 1.1106352
7.2792883 14.610983 1.0550489
7.8064075 14.359728 0.99964058
8.3116016 14.105416 0.94854283
8.7973642 13.893417 0.90047038
9.2662582 13.636796 0.85243583
9.4045382 2.180757 -1.0405706
10.16243 13.212664 0.76509285
10.185341 10.155936 0.66743553
11.717485 10.413358 0.55284226
12.400579 10.103239 0.49179038
6.7324381 14.870193 1.2013956
7.8131914 14.348465 1.0876158
8.8034391 13.882297 0.98628974
9.2724409 13.637746 0.93742788
10.499789 9.8980713 0.69536233
12.064469 10.256364 0.58812332
12.752326 9.9724369 0.45922557
6.7382536 14.870103 1.2923667
7.2918983 14.603642 1.2340693
11.927581 11.331675 -0.16396132
7.8193836 14.344625 1.1758811
8.3238869 14.098466 1.1227276
8.8095112 13.88263 1.0725259
9.2782526 13.630177 1.0221345
9.7308416 13.40597 0.97436452
10.175883 13.222213 0.93133676
10.194367 10.15102 0.79510868
10.823454 9.7658901 0.66473699
11.726908 10.408401 0.6858812
12.067871 10.249907 0.65384448
12.408432 10.094663 0.6218729
12.747919 9.9343548 0.587825
7.8252988 14.344225 1.2643427
8.3299818 14.094174 1.2097918
8.9819517 1.0887065 -1.0213079
9.2843561 13.630061 1.1071452
9.7370129 13.405934 1.0582864
10.183005 13.230172 1.0147483
8.7627487 2.3101425 -0.29543963
10.198843 10.14796 0.85892558
9.1151934 2.0404763 -0.37822726
10.512808 9.9161339 0.82111299
10.831314 9.7565184 0.78831899
11.140608 9.6050072 0.6967783
11.731581 10.40529 0.75237429
12.072494 10.246837 0.71959066
12.414379 10.095386 0.68698049
10.011652 3.6969163 -1.0526091
8.5592108 1.3418201 -1.0306513
9.7428074 13.401391 1.1420375
10.836432 9.7571201 0.85028255
11.150097 9.6027336 0.81907022
12.079535 10.25096 0.78556037
9.0453281 1.0889636 -1.0193956
10.62281 12.998882 1.1340271
10.841512 9.7573261 0.91227686
11.744088 10.409344 0.88577509
12.424721 10.091869 0.81714272
10.531356 9.9362984 1.0105203
11.15941 9.5989265 0.94138753
12.089762 10.246562 0.9172219
12.429145 10.087619 0.88215089
12.770206 9.9311562 0.84518135
9.329977 3.7401464 -0.46798244
10.532001 9.9121008 1.0720211
10.851562 9.7565699 1.0363418
11.164499 9.598382 1.0026581
12.095442 10.245638 0.98314822
12.77302 9.9228735 0.90926182
10.51757 9.8050756 1.127653
10.836957 9.6659012 1.092564
11.168563 9.5935831 1.0637032
11.760874 10.406509 1.0858968
12.440619 10.085391 1.0124879
10.95098 10.163548 1.1898055
11.132114 9.4298487 1.1137726
12.107924 10.246334 1.115293
12.7861 9.9235811 1.0382546
12.451939 10.081516 1.142897
12.790301 9.9177809 1.102455
7.7473717 14.168007 0.033833355
8.5956812 1.8121947 0.093845814
7.773726 14.375867 0.55793142
7.7595735 14.387224 0.38107452
9.8807507 5.8711467 -1.072467
10.081015 12.96502 0.027789384
9.2420492 13.655656 0.51295483
9.8574095 4.885293 -1.062941
10.745615 5.1820507 -1.0709021
9.7361565 4.3851037 -1.056458
10.565227 4.722683 -1.0644475
9.6738672 4.1269159 -1.0527462
10.411928 4.3301654 -1.0577816
9.5877504 3.7690868 -1.0540261
10.286589 4.0072384 -1.0573879
9.7965488 3.4874275 -1.0496361
10.151803 3.6573923 -1.0559099
9.7265034 3.2593412 -1.0473388
10.058252 3.4126508 -1.0534633
9.524456 2.9970555 -1.0446829
9.9365396 3.0913861 -1.0503784
7.2864189 14.59964 1.1441935
9.5606565 2.7114723 -1.0433168
9.8357363 2.8218329 -1.048848
9.718708 13.408443 0.80671775
9.3873425 2.4809704 -1.0405465
9.7484674 2.5855033 -1.0465569
9.345746 2.3214614 -1.0413985
9.5737 2.4021852 -1.0430337
9.851305 4.8367305 -0.91531384
8.3280773 1.8898699 -1.0386089
9.2924385 2.1147153 -1.0372208
9.5766783 2.108849 -1.0404835
8.2596989 1.6864073 -1.0292852
8.8978958 1.8485171 -1.037397
8.1735153 4.9597783 -0.27526322
9.2396851 1.9068645 -1.0318033
9.4417467 1.9929483 -1.0343765
8.4940176 1.5637501 -1.0337071
8.8691673 1.6356484 -1.0328268
9.1026707 1.6692222 -1.0355301
9.3761587 1.782338 -1.0330597
8.5645628 1.454023 -1.0274463
8.8464298 1.4665346 -1.028518
9.0888643 1.6053098 -1.0298817
9.3151627 1.5805062 -1.0326481
8.5253277 4.6719356 -0.32609817
8.2844439 1.2675486 -1.0224003
8.4895754 1.2927719 -1.0301831
8.7611675 1.3346823 -1.0324112
9.0440502 1.393348 -1.0309533
9.2864876 1.4846219 -1.0278652
9.8237495 4.0827866 -0.91162181
9.9770355 4.0650854 -0.92382014
8.2884541 1.1648787 -1.0203133
8.4863768 1.1426886 -1.0238502
8.6839495 1.2232292 -1.0295669
8.9384184 1.1956505 -1.0191808
9.1595097 1.2867082 -1.0306133
8.3826656 4.3801789 -0.3135263
8.2911873 0.95622569 -1.0225133
8.4800014 0.99925828 -1.0274781
8.6748791 1.121377 -1.0255022
8.9218016 1.1023642 -1.0251163
9.1318893 1.178329 -1.0248069
10.142324 13.198405 0.51640022
8.4777679 0.93480057 -1.0237566
8.5967112 0.92685837 -1.026473
8.9026499 0.99301028 -1.0182046
9.1435843 0.96592689 -1.022963
8.3488483 0.73710859 -1.0240935
8.5315237 0.82675499 -1.0184259
8.7550344 0.78905767 -1.0214576
8.9996357 0.87486702 -1.0182949
8.3465252 0.63788146 -1.0160335
8.7431116 0.69837987 -1.01483
8.980464 0.78160435 -1.0152857
9.0124321 0.65607893 -1.0212804
9.8443394 4.7522869 -0.60484993
9.3199959 4.6610618 -0.56060994
9.479084 4.6275535 -0.57161021
8.8090086 4.3071218 -0.62746823
11.736296 10.587426 0.14844093
9.1723108 2.413599 -0.94833565
9.8336124 4.0855508 -0.60493517
9.9842367 4.0687156 -0.61699939
9.8372774 4.0878911 -0.52357769
10.133312 4.0389371 -0.62586689
12.087379 10.4234 0.18890843
9.9862127 4.0675201 -0.53467369
10.132051 4.0339026 -0.59714425
9.1348009 2.2323141 -1.0113044
9.3426037 3.8670928 -0.62894619
9.413579 2.2118268 -1.0424929
10.170467 13.229625 0.84852231
12.408104 10.194601 0.16370991
9.0421114 3.6665981 -0.66328454
9.1771612 3.6788549 -0.63295829
8.5279531 4.9912014 -0.19362476
10.798119 9.7807732 0.29323986
8.5221539 4.990706 -0.25490132
10.789568 9.7839394 0.16922805
9.4129524 1.9002988 -1.0376049
8.5222082 4.922821 -0.27658156
8.8617325 4.858397 -0.27100793
11.097511 9.6020498 0.1470364
8.7012854 4.7753329 -0.18190518
11.099245 9.5909729 0.20840749
9.3967171 1.5824466 -1.0327432
8.8600273 4.6845627 -0.21565118
9.1778278 4.6648149 -0.274506
8.6984081 4.5576015 -0.20819989
8.8625002 4.5853152 -0.14349216
9.3384485 4.6097436 -0.19455782
9.4776096 4.5144105 -0.28283033
9.6233149 4.4341769 -0.25750086
9.7681923 4.372561 -0.26231053
8.6903152 4.3663969 -0.29004815
9.6258364 4.4380507 -0.22964588
9.5900993 4.2941661 -0.31732109
11.33812 7.3040533 -0.078771472
11.271433 7.1342425 -0.15800798
8.8252211 3.8625052 -0.26433781
11.234493 7.0460138 -0.24125788
8.8265753 3.8273699 -0.23396924
9.6118021 3.7542052 -0.32755896
8.82899 3.7448153 -0.17126295
9.0474329 2.1629047 -0.64632618
9.1233597 2.127327 -0.65551507
8.9495029 3.6824715 -0.22090617
8.9515715 3.619175 -0.14002177
9.068306 3.5927722 -0.21687785
9.1208506 2.099772 -0.55917454
9.0666218 3.5927567 -0.23923388
10.490869 9.9020462 0.57040775
10.816291 9.7776184 0.5410316
10.81822 9.764123 0.60280448
6.6381893 14.914742 0.020189255
11.137278 9.6113834 0.63574636
11.125632 9.6035891 0.51340544
8.9031963 3.090445 -0.2663953
8.8965254 2.9929841 -0.26220527
8.9953556 2.8873315 -0.1909413
6.6920476 14.483454 -0.055301458
8.9649057 2.6315298 -0.23408994
8.9583416 2.5697615 -0.23412707
10.202103 10.136595 0.92236841
8.8384562 2.2287967 -0.29297605
8.9147959 2.2027049 -0.29346612
9.0553885 2.1056554 -0.29249778
10.518554 9.9206333 0.88402522
8.9053431 2.1111798 -0.28986242
8.9781046 2.0944102 -0.29301295
8.8317013 2.1294136 -0.28712311
8.8241749 1.9750016 -0.24429587
8.491086 1.9264015 -0.14304742
8.8829908 1.9021329 -0.29154721
8.9521008 1.9054875 -0.28839543
9.0006914 1.7864723 -0.28690115
8.8724108 1.8002828 -0.28815082
8.4331312 1.8259476 -0.14970186
8.4421225 1.7663773 -0.14059067
8.7434568 1.7032534 -0.24141565
8.5690126 1.7652324 -0.14554098
8.6325378 1.737246 -0.1435748
8.633914 1.6589037 -0.14834252
8.7518473 1.6568065 -0.14088359
8.9086695 1.5913066 -0.28571793
8.7927999 1.6032443 -0.28703293
8.7340412 1.59902 -0.28823259
8.5047922 1.5782721 -0.25512859
8.4406519 1.5971209 -0.267037
8.8397226 1.4907246 -0.28421172
8.6813955 1.4969552 -0.23002747
8.62148 1.5165137 -0.26470843
8.5181274 1.5526127 -0.18815777
8.461484 1.5736438 -0.16733959
8.5695505 1.414415 -0.26861981
8.4594021 1.4275455 -0.26929513
8.7763567 1.3777493 -0.28061369
8.5740051 1.3079047 -0.27102569
8.4717379 1.3146425 -0.26852915
8.6722555 1.2942799 -0.27884355
8.7625103 1.4207443 -0.45665827
8.7651644 1.3503164 -0.37416449
8.7068501 1.2406578 -0.37932768
8.6467094 1.2867278 -0.46139178
8.6708593 1.1928955 -0.27549395
8.6928425 1.2060039 -0.47773775
8.4225407 2.1184502 0.045948148
12.758399 9.9317122 0.71642506
8.4039917 2.0890405 -0.11885545
8.4744205 2.058538 -0.17271516
8.8213139 1.9333348 -0.24206653
11.754199 10.40404 1.0189679
8.5889864 -1.6573681 1.0401912
8.6427374 -1.6849155 0.98063374
8.964221 -1.8289874 0.97507322
9.196146 -1.9513636 0.97604465
8.4086618 -1.963451 1.0588783
9.1801081 -1.9411103 0.89535713
8.5100775 -1.7605746 1.0237414
8.8853655 0.56889737 -1.0152259
8.9528761 -1.8251592 0.89971662
9.0394087 -1.869054 0.98845661
8.6337099 0.70775789 -1.0195986
8.6939707 -1.7144592 0.89774144
8.7649431 -1.7378938 0.97830343
8.8294878 -1.7767761 0.98022509
8.5225458 0.71646094 -1.0207074
8.6402702 -1.6874849 0.95789397
8.7522993 -1.7339253 0.87044978
8.2819853 -2.1876142 1.0193324
9.0215626 -1.8673184 0.87466133
8.1271763 -2.4769783 1.0741717
8.4037437 -1.9696177 1.006148
9.1786366 -1.944155 0.88318181
8.1043406 -2.575202 1.1163688
9.0109882 -1.8573374 0.81108737
9.0974579 -1.8981423 0.88354051
8.253006 -2.3022857 0.97137237
8.4015226 0.60840338 -1.0191126
8.487874 -1.8065305 0.84046912
8.9477692 -1.8259677 0.86329472
8.2194586 -2.4583418 0.99026561
8.7495947 -1.7351847 0.84745133
8.8153296 -1.7693416 0.8696444
9.0781641 -1.8867607 0.76954734
8.0953665 -2.5844855 1.0142969
8.5195827 0.69803566 -1.0282475
8.6323566 -1.6844325 0.87602699
8.0717754 -2.6704957 0.99751008
7.8129487 -3.2169495 1.1048369
8.0603704 -2.7115698 0.98795044
8.1997433 -2.540997 0.97458708
8.1956778 -2.5416477 0.92423832
8.3974228 -1.9585783 0.8965075
9.1592655 -1.9310677 0.77921307
8.0411959 -2.7783446 0.96448982
8.4759216 -1.8303248 0.74862468
8.6212444 -1.6796099 0.76240647
9.0037327 -1.8548293 0.76216257
9.073966 -1.8832994 0.74456894
9.1407404 -1.921869 0.66656375
9.960041 3.9751976 -0.43217257
7.8023319 -3.2336817 1.0228049
8.1671534 -2.6571734 0.89345896
8.8596115 -1.7845218 0.71096897
8.934124 -1.8219864 0.76639736
8.1586466 -2.6904502 0.88142765
8.8006592 -1.7611227 0.75112176
8.7389536 -1.7254113 0.75374687
8.9196072 -1.8144033 0.6594916
7.786468 -3.2724197 0.96531713
8.0399523 -2.772176 0.92684674
8.6145639 -1.6778872 0.69598341
7.3870077 -4.0990062 1.0909947
7.785193 -3.2711599 0.94374728
8.0347328 -2.7698903 0.8539412
8.148325 -2.7105258 0.81401932
8.3889837 -1.9572598 0.79205179
9.0256834 4.619041 -0.10639223
7.3645144 -4.1490941 1.0177609
8.1522112 -2.6852133 0.79316247
7.9820647 5.1136832 -0.21509472
9.1385345 -1.9195729 0.65407944
7.769115 -3.3028705 0.86261296
8.465066 -1.8588901 0.68049252
8.7275314 -1.7239274 0.65253532
8.9887638 -1.8513957 0.65421677
9.0615959 -1.8803306 0.65958792
7.7621651 -3.3141439 0.82110226
8.9165859 -1.8131878 0.63611662
9.0120258 4.5451851 -0.21149483
7.3364182 -4.2074623 0.91672599
8.0227718 -2.7803247 0.74718606
8.7898912 -1.76245 0.65984094
8.132205 -2.732825 0.69341266
8.5410166 -1.6997691 0.58640909
8.7201538 -1.7223552 0.58588028
9.0080261 4.5566173 -0.27084538
7.3179255 -4.2489319 0.86650658
7.7450266 -3.3530161 0.76055503
8.3746414 -1.9725121 0.66590989
8.3139706 2.117564 -1.0447096
8.7767687 -1.7525631 0.54635906
7.309906 -4.2656488 0.84066987
9.0475721 -1.8793273 0.55209035
8.3626366 -1.9902089 0.57795399
8.3365641 -2.1242352 0.57329166
8.4488297 -1.8876328 0.56223232
9.1204185 -1.9163903 0.52043658
7.2819796 -4.3261771 0.76279128
7.7254343 -3.3915803 0.67689329
8.0060492 -2.798969 0.62299567
8.1165743 -2.7644238 0.60752702
8.3022995 -2.3014429 0.5692938
9.0377979 -1.8712982 0.48079729
7.7207928 -3.3999267 0.65563047
8.2853355 -2.3843572 0.55853069
8.4075985 2.082026 -1.0351329
8.9067936 -1.8125404 0.5551945
8.4984951 2.0160463 -1.020269
8.9730062 -1.8424646 0.53606892
7.261981 -4.3694777 0.70986551
8.8297882 -1.7731782 0.45999235
8.5131884 5.9058437 -0.02294749
7.250051 -4.3965578 0.68331039
8.3139811 2.1365337 -1.0392195
8.7729931 -1.7501867 0.51277471
9.1109476 -1.911437 0.4481459
7.7069645 -3.4315445 0.61356449
8.1027918 -2.793195 0.53769249
8.2737379 -2.4204776 0.51379693
8.8256464 4.3752365 -0.47482654
7.2324982 -4.4312634 0.62838924
8.0021458 -2.7999659 0.58710968
8.0982418 -2.8049867 0.52014869
8.5267344 -1.7235792 0.47770628
8.2162743 2.1882708 -1.040352
8.7153149 -1.7212238 0.54173535
8.8217573 4.2992282 -0.485917
7.2192183 -4.4616036 0.60107231
7.9934101 -2.8044758 0.51541656
8.0954418 -2.8088641 0.50229126
8.4334536 -1.9210312 0.46576884
7.2097559 -4.4804034 0.57303983
7.694222 -3.4587901 0.57057172
8.2657757 -2.4360836 0.46751791
7.6142669 -3.2796912 0.51643598
7.7400913 -3.2822196 0.50035948
8.8943806 -1.8047303 0.45180827
9.1049871 -1.9079211 0.40020078
7.6443052 -3.1846678 0.49439955
9.03267 -1.8723379 0.43365163
8.9605684 -1.8379469 0.4313466
7.9797535 -2.818181 0.42548174
8.0897818 -2.8162646 0.46593082
10.794198 5.3053851 -1.0712841
8.5155602 -1.7460455 0.39985114
8.8846064 -1.8034925 0.36046743
7.7507515 -3.2315407 0.45860985
8.2429218 -2.4999256 0.37225217
8.4186687 -1.9540679 0.37852174
8.7633429 -1.7514048 0.42373878
9.7987022 4.0032563 -1.0543247
7.6361389 -3.1733336 0.39223984
8.7046165 -1.7196006 0.44296443
8.9470263 -1.8340695 0.30379757
8.5866833 -1.6694678 0.42576081
10.849985 5.4468684 -1.0752684
8.6361246 -1.694569 0.35301024
8.6930943 -1.7116792 0.33375108
7.9649234 -2.8417454 0.35244298
9.0985966 -1.9067326 0.34028089
8.0765133 -2.802376 0.32279375
8.7134132 8.5984764 -0.11703691
7.7344003 -3.2280633 0.31356344
8.2260685 -2.5377727 0.28987446
9.0225935 -1.8708528 0.33933812
7.624238 -3.1701155 0.29020041
8.945076 -1.8363732 0.28030217
8.0672665 -2.8043745 0.25064659
8.4994612 -1.7827092 0.29585275
9.0109253 -1.8662491 0.22125705
7.7279973 -3.2229705 0.25152028
7.9483709 -2.8522925 0.24201143
8.4063492 -1.9763745 0.30159599
8.7481327 -1.7438047 0.27924728
7.9285736 -2.9158363 0.21879718
8.2091932 -2.5824735 0.22077326
8.8825359 -1.8064431 0.33742017
7.7204695 -3.22051 0.18929073
7.8928423 -3.0368497 0.19003847
8.0672607 -2.7948792 0.23328879
8.2019939 -2.6079953 0.2017916
8.7446785 -1.7363956 0.2464619
8.6872396 -1.7150987 0.27854094
7.6124992 -3.163662 0.18819895
8.1962223 -2.6157053 0.16727853
9.0814524 -1.8996522 0.15995628
7.8687639 -3.0949299 0.12462381
8.5740108 -1.6668241 0.3084147
9.0789948 -1.8963331 0.13576412
7.6083059 -3.1585882 0.14700486
8.3985548 -1.9775862 0.23762181
9.0079041 -1.8661599 0.18548715
8.1903114 -2.6127276 0.11626618
8.4843159 -1.8147799 0.19878875
8.9352608 -1.8331721 0.17509334
7.7117195 -3.2205739 0.12610531
8.0489883 -2.7923744 0.088277683
8.8646326 -1.7996142 0.15309353
7.5974755 -3.154536 0.065072209
7.8382568 -3.1638258 0.035314918
8.3914452 -1.972773 0.17356704
8.8010693 -1.770358 0.17706284
8.8615007 -1.7979747 0.11827421
8.1723051 -2.6564064 0.041552365
8.7368889 -1.7417269 0.16663516
7.6948633 -3.2061014 -0.019044906
7.8159957 -3.2108881 -0.033709258
9.9121695 6.0207224 -1.0718173
8.167367 -2.6689229 0.022188574
7.6928296 -3.2024283 -0.039591074
8.0382137 -2.7851419 -0.0020049512
8.555254 -1.681874 0.15364458
8.6723642 -1.7108799 0.13412668
9.0722866 -1.8956542 0.03752467
8.0364552 -2.7818146 -0.019809514
8.4696712 -1.847782 0.1094899
9.1248989 11.478153 0.0058324039
8.4679556 -1.8493563 0.09695971
8.9948616 -1.856482 0.02984187
7.7806478 -3.2901857 -0.1320678
8.9235058 -1.8285325 0.032390505
7.7774963 -3.2896502 -0.15378118
8.1540813 -2.686743 -0.051428527
8.3767624 -1.9714545 0.056713849
8.666853 -1.7039557 0.078963965
7.6863422 -3.2022121 -0.081826717
7.7820148 -3.2624934 -0.17059746
8.0210218 -2.7901561 -0.11374411
8.8547401 -1.7980317 0.035463184
8.1374187 -2.7178347 -0.12943059
8.7259426 -1.7363777 0.053077191
8.1265688 -2.7558582 -0.15579051
8.453722 -1.8840727 0.015055567
8.5402508 -1.7119777 0.045900971
8.9913263 -1.8587934 -0.032323122
8.7216225 -1.7337266 0.0071293116
9.0666018 -1.8983176 -0.076272041
8.0100107 -2.8004544 -0.17209855
8.3630943 -1.9884762 -0.026711136
8.6611147 -1.7030355 0.022042334
8.9890089 -1.8576581 -0.069461405
8.1139326 -2.7771084 -0.21648553
8.3414278 -2.0962987 -0.065917283
8.5349207 -1.7230636 0.0083626509
8.3040781 -2.2878015 -0.12712267
8.9183779 -1.8278686 -0.040618837
8.2749577 -2.4208674 -0.19276729
8.439312 -1.9151587 -0.06998536
9.0651798 -1.9002221 -0.11527652
8.5280638 -1.7340198 -0.041863322
8.8450661 -1.7887592 -0.083047599
8.7141123 -1.7319369 -0.075222105
8.2612305 -2.4567871 -0.25275043
9.0615044 -1.8941239 -0.17838582
8.6507998 -1.6989017 -0.081840485
8.9842892 -1.8610799 -0.17228237
8.8398504 -1.7870431 -0.1568611
8.9097719 -1.8253826 -0.1777766
8.4211969 -1.9535074 -0.17509773
8.5139303 -1.7667131 -0.13721243
8.8392582 -1.7908812 -0.17070761
8.5084629 -1.7737937 -0.17741838
9.4991913 11.427058 -0.24291131
8.9062405 -1.8242693 -0.24200895
9.0577955 -1.8918496 -0.28405038
8.7045259 -1.7260633 -0.18282333
8.6412258 -1.6999583 -0.17851445
8.9796047 -1.8588524 -0.27661976
8.5798683 -1.6717856 -0.17372277
8.6390371 -1.695631 -0.20152315
8.9051971 -1.8269225 -0.26927331
8.9772978 -1.8555732 -0.32926515
8.634285 -1.693468 -0.25048241
8.6970005 -1.7263727 -0.27104011
8.8324451 -1.7843685 -0.27082655
9.056056 -1.8946013 -0.39564648
8.6948776 -1.7245972 -0.29603454
8.9759798 -1.8581028 -0.38535872
8.6929083 -1.7151318 -0.31790802
8.7576532 -1.7587863 -0.35811934
9.0561218 -1.8989488 -0.45469424
8.8989372 -1.8175631 -0.38664094
8.7547932 -1.7506886 -0.39484969
9.0547848 -1.8930608 -0.49554983
8.9724102 -1.8511045 -0.4957051
8.894474 -1.8136479 -0.49732366
8.8941231 -1.8149154 -0.51242149
8.8189058 -1.7748859 -0.51219201
9.0553493 -1.896837 -0.60245883
8.9709368 -1.8503815 -0.58405995
8.9730148 -1.8688926 -0.62480438
8.8913641 -1.8130982 -0.60013592
8.8913193 -1.8170201 -0.61751413
9.0571175 -1.9016584 -0.715433
9.0580626 -1.9042914 -0.74963188
8.9706993 -1.855561 -0.71130705
8.9704742 -1.8541523 -0.75900996
9.0591879 -1.9055378 -0.80030715
8.1068954 0.50199234 -1.0192155
8.1027956 0.53555286 -1.0242993
8.1646948 0.54140085 -1.0242761
8.6704855 0.55283934 -1.0200251
8.8312302 0.54929465 -1.0142006
8.8856258 0.54692781 -1.018657
8.9402685 0.54228652 -1.0176302
8.0962114 0.64389807 -1.0210868
8.5642185 0.60465413 -1.0226246
8.1599731 0.63849252 -1.0212952
8.2819576 0.64834863 -1.0176866
8.3405733 0.64343429 -1.0182388
8.4541931 0.64529622 -1.020422
8.5109777 0.63845181 -1.0150639
8.4542398 0.65618455 -1.0201631
8.5651083 0.636953 -1.0225345
8.3386011 0.69994164 -1.0196047
8.6763229 0.6561929 -1.0133938
8.7861824 0.65901852 -1.0160166
8.2778273 0.71776491 -1.0214843
8.897459 0.66042084 -1.0152912
8.953454 0.65507811 -1.0143769
8.0874872 0.73627031 -1.0224347
8.1533346 0.7404561 -1.0188348
8.2759047 0.75292903 -1.0222205
8.3948088 0.75444114 -1.0251331
8.1472178 0.79036206 -1.0243661
8.4543076 0.74573648 -1.0188161
8.5687456 0.75898933 -1.0196617
8.9645758 0.73424172 -1.0205612
8.6818533 0.75893748 -1.0182873
8.7946949 0.75735825 -1.013521
8.9079771 0.74887425 -1.0169802
8.8525705 0.76614487 -1.0186335
8.9092216 0.75961316 -1.0159274
8.0753574 0.8569048 -1.0213016
8.9687023 0.76606643 -1.0175459
8.1430616 0.86054957 -1.0180138
8.2707357 0.86004007 -1.019659
8.3936787 0.85931706 -1.0195762
8.4533243 0.85369444 -1.0208905
8.6867409 0.83948523 -1.0162988
8.57164 0.85132498 -1.0160097
8.6306639 0.86731708 -1.0117413
8.688241 0.86389297 -1.0162524
8.5721455 0.89118922 -1.0207504
8.7467594 0.86887044 -1.0136213
8.9227924 0.86487406 -1.0165952
8.9824209 0.85304213 -1.0280949
8.0639286 0.95927298 -1.0193131
8.1983147 0.95912921 -1.023164
8.2635021 0.96411645 -1.0219533
8.3902407 0.96304739 -1.0225281
8.4523735 0.95504487 -1.0210873
8.452693 0.96651518 -1.0185919
8.3891287 0.99037206 -1.0239146
8.5741568 0.9675349 -1.0208472
8.6945219 0.96385062 -1.0162138
8.0508499 1.0558525 -1.0204965
8.8158865 0.97588944 -1.0153319
8.1888323 1.067573 -1.0220195
8.2540455 1.065192 -1.0305305
8.9372635 0.97209466 -1.0099776
9.0008221 0.97312021 -1.0228257
8.387352 1.0572439 -1.0221769
8.0440483 1.1000631 -1.0223459
8.451005 1.0627419 -1.0214496
8.0391245 1.1305374 -1.0239625
9.0068913 1.0107055 -1.0210373
8.5770292 1.0749974 -1.0206591
8.7015181 1.070402 -1.0162735
8.8859844 1.0494931 -1.0174354
8.1079082 1.1647936 -1.0225735
8.7630796 1.0677997 -1.0226932
8.1780262 1.1710752 -1.0239356
8.889492 1.0766349 -1.0174065
8.7667484 1.1091465 -1.0221696
9.0196686 1.0822138 -1.0278486
8.3833504 1.1721888 -1.0218003
8.7053013 1.1281123 -1.0184704
8.4493828 1.1776139 -1.0209374
8.5789356 1.1637501 -1.0245587
8.0199165 1.2667216 -1.0204167
8.0932217 1.2752262 -1.0240251
8.5798187 1.2112685 -1.0279073
8.6506338 1.1141828 -0.91593742
8.7093534 1.186563 -1.0186799
8.7732801 1.181235 -1.0221323
8.4480963 1.239774 -1.0223539
8.6438932 1.1154517 -0.99085498
8.9038 1.1825157 -1.0262849
8.3086843 1.2783568 -1.0264617
8.3787174 1.2682742 -1.0262208
8.3770676 1.2878691 -1.0304744
8.446413 1.2762371 -1.0283176
9.0388165 1.1914693 -1.0222977
8.514369 1.2829655 -1.0283884
7.99965 1.3744777 -1.0289464
8.3055534 1.3272721 -1.0263482
8.1552448 1.3678339 -1.028635
8.5814362 1.2737267 -1.0283552
8.7158718 1.281927 -1.0228324
8.1512117 1.4029579 -1.0285527
8.302639 1.3769064 -1.0246987
8.8512201 1.2923417 -1.0188665
8.9855261 1.2782631 -1.0238754
8.0684757 1.4362603 -1.0318791
8.3732758 1.3866274 -1.0285203
8.6556597 1.2150096 -0.91507912
8.9197884 1.2976782 -1.0173012
9.0572643 1.287577 -1.028089
7.9843068 1.4647506 -1.0294651
8.5149555 1.3813342 -1.0270398
8.9911814 1.311619 -1.0259746
9.0605135 1.3041712 -1.0290804
7.9815645 1.4824057 -1.028584
8.5845938 1.3890847 -1.0279917
8.0649719 1.4688801 -1.0279171
8.7915449 1.3760175 -1.0285765
8.2178459 1.4842011 -1.0318187
8.2942753 1.472791 -1.0325223
8.7243805 1.3966709 -1.0218928
8.8616982 1.3798373 -1.0255888
8.7947798 1.4077983 -1.0261567
8.863801 1.3969889 -1.0258566
8.3681183 1.4800409 -1.0333996
8.6641178 1.1445671 -0.78514528
9.0051146 1.3933252 -1.0256091
8.5141973 1.4950132 -1.0348216
8.5867701 1.4794775 -1.0303742
8.7283649 1.459861 -1.033403
9.0790348 1.3995625 -1.0260139
7.9641466 1.5795537 -1.0296174
8.58706 1.4999739 -1.0326216
8.0486717 1.5687779 -1.0327619
8.2086535 1.5792321 -1.0315021
8.7310743 1.4894179 -1.0267102
8.2871323 1.5829231 -1.0288565
8.8037491 1.4976702 -1.0275815
8.3629713 1.5931599 -1.0323614
8.588851 1.5534081 -1.0297952
8.949337 1.4964168 -1.0307827
7.9459887 1.6810939 -1.0286084
8.3624125 1.6112561 -1.0306668
8.5992594 1.4593904 -0.92029107
9.0249109 1.5045011 -1.0320582
8.0284948 1.6944262 -1.0353521
8.280283 1.6516348 -1.0366913
8.5144053 1.5901891 -1.0349784
9.1003752 1.5046318 -1.0261275
8.1137543 1.6966982 -1.0323633
8.1981831 1.6814837 -1.0319374
8.7368507 1.5658975 -1.0285095
8.1099768 1.7208314 -1.0347124
8.2777147 1.6911298 -1.034659
8.6727066 1.1402664 -0.690292
8.7381754 1.4505599 -0.88256788
8.8134375 1.5917828 -1.0275337
8.8895826 1.6004674 -1.0292218
9.1124287 1.5620528 -1.0280753
7.9218817 1.79862 -1.0349571
8.0132122 1.7854098 -1.0380092
8.3565016 1.7016729 -1.0380328
8.5451469 1.4500809 -0.81737351
8.7387991 1.4033077 -0.82169139
9.0417547 1.5973908 -1.0311821
8.1009226 1.787946 -1.0353043
8.6050243 1.4160265 -0.8616488
9.0449524 1.6149722 -1.0293912
8.1847095 1.7972127 -1.0375333
8.8973732 1.6597832 -1.0288804
8.9734993 1.6515564 -1.0330815
8.26898 1.8012537 -1.0351528
8.6130219 1.4845276 -0.80990589
8.8240576 1.6931839 -1.0283222
7.9971981 1.8806101 -1.0394876
8.4342089 1.7900398 -1.0328178
8.5359812 1.4664249 -0.88199067
8.9032249 1.7045671 -1.0321217
8.0885277 1.8804407 -1.0346323
8.9839306 1.7169844 -1.036455
8.1748171 1.8900528 -1.0368862
8.6140947 1.4954574 -0.80334485
8.6213112 1.472809 -0.73717904
8.6835985 1.1587429 -0.58468461
8.741168 1.410149 -0.79620075
9.1468372 1.7226022 -1.0294104
7.9046946 1.8906609 -1.0329922
8.2600498 1.9003804 -1.0395148
8.4322023 1.8798673 -1.0306153
8.6271172 1.4154236 -0.67486215
8.7489967 1.4139057 -0.69312847
8.8363018 1.8113375 -1.0370201
7.9764328 2.0051718 -1.0388947
8.6315346 1.3759322 -0.62839597
8.9185534 1.819412 -1.0375693
8.9985714 1.8072382 -1.0396155
8.0701351 2.0084219 -1.0368079
8.1636162 1.9902042 -1.0372878
8.2552032 1.9694058 -1.0353558
8.4367609 1.8706534 -1.0041528
7.9723759 2.0303185 -1.0380259
8.2523909 1.9977406 -1.0374827
8.5475998 1.5230091 -0.80043399
8.6358728 1.3359123 -0.58246642
9.0836258 1.8198332 -1.0251132
9.1688147 1.8207501 -1.0392268
8.0613804 2.0651803 -1.0395365
8.3395977 2.0091052 -1.0404391
8.642065 1.2889577 -0.51925832
8.9224243 1.8436599 -1.0199641
8.4275999 2.0117402 -1.0366204
8.8455811 1.891117 -1.0266761
8.9238977 1.8459307 -0.98459125
9.0942974 1.8743161 -1.0322865
9.1780977 1.8627578 -1.0364019
8.0570612 2.0937123 -1.0404606
8.5597334 1.5919287 -0.71404994
9.0172939 1.9200422 -1.0372145
8.2415438 2.1121287 -1.0430474
8.5181427 2.0119305 -1.0110186
8.7500372 1.4117208 -0.67674947
9.1038675 1.9230255 -1.033417
8.3333235 2.1174233 -1.0412614
8.5169086 2.0500805 -1.0197901
9.1937742 1.9322708 -1.0354652
7.9793568 2.0406151 -1.0061746
8.4239235 2.1233332 -1.0397726
8.645793 1.2538832 -0.47962475
8.1358776 2.2198086 -1.0435734
8.3304033 2.1720767 -1.0399984
8.8469582 1.8808265 -0.98103559
8.9241009 1.8421463 -0.96327233
8.0473747 2.1703744 -1.0348089
8.2328482 2.2218471 -1.0390147
8.8515759 1.8726267 -0.88409138
9.1234512 2.0215361 -1.032326
8.0609303 2.189738 -0.96766829
8.1294012 2.2784078 -1.0417675
9.2162008 2.0302055 -1.0337032
7.9968457 2.0780759 -0.91698599
8.5707245 1.1146635 -0.3055948
8.6662607 1.1278654 -0.27753097
8.7578773 1.4274014 -0.59064561
9.1474333 2.14008 -1.0412711
9.2357044 2.1136553 -1.0368677
8.7086382 1.236164 -0.36952639
8.9297676 1.8575 -0.86772668
9.1512394 2.1586652 -1.0347683
9.2422829 2.1416357 -1.037336
8.3692894 1.2163063 -0.29111868
8.8529587 1.8775587 -0.87013483
9.1524391 2.1642864 -1.0190822
8.7121525 1.211292 -0.32001126
8.4731026 1.2211746 -0.27832425
8.5723839 1.210387 -0.27638018
9.2638493 2.2325017 -1.0413915
8.4702196 1.2541385 -0.27752918
8.3589468 1.3018348 -0.27905482
8.5716686 1.2285422 -0.27728194
9.1528435 2.1653926 -0.98103595
8.2172279 1.3456795 -0.35487252
8.243906 1.3243741 -0.2746672
8.7173443 1.2245231 -0.27601367
8.7692719 1.3682082 -0.38478422
8.9321318 1.8295692 -0.7151891
8.9309263 1.8375827 -0.76918423
9.0378532 2.008997 -0.79268873
9.2934952 2.355953 -1.0429554
8.3561697 1.3201064 -0.27878463
8.8592577 1.878426 -0.76848638
8.9380016 1.8539674 -0.66740143
9.301219 2.3878417 -1.0430447
8.8679085 1.8948252 -0.66527009
8.2200871 1.4290375 -0.27636874
8.4644709 1.3321457 -0.26954705
9.3167982 2.4518561 -1.0421922
8.56989 1.3363427 -0.26637846
9.153738 2.1675673 -0.9254092
8.6717892 1.332356 -0.27946365
8.8414345 1.5249865 -0.40353155
8.2804909 1.4309428 -0.27517372
8.3978653 1.4321917 -0.27119547
8.7705803 1.3253855 -0.32398856
9.3430033 2.558506 -1.0443316
8.1969719 1.5268388 -0.2800042
8.4538603 1.4388287 -0.2720049
9.1538906 2.1612461 -0.81135345
8.2583685 1.5363076 -0.28248924
8.6202011 1.4440092 -0.27728647
8.8385162 1.4782263 -0.36436266
9.3713608 2.6727366 -1.0468392
8.674572 1.4358802 -0.28109801
8.838829 1.4415057 -0.29724824
8.9785128 2.1250181 -0.67853475
9.1507444 2.1391776 -0.72821593
8.5644789 1.488095 -0.2688539
8.6755714 1.4876244 -0.28525633
8.8394432 1.4389936 -0.28457749
8.1756449 1.6223543 -0.27763063
8.3780184 1.5800269 -0.2751404
8.5020943 1.5474825 -0.27780604
8.988637 2.1912022 -0.68000555
9.4002171 2.7877979 -1.0455426
8.1616068 1.6809117 -0.27954024
8.3051081 1.6369299 -0.28010297
8.9860973 2.1627321 -0.64799953
9.0726309 2.169142 -0.64670008
9.4220114 2.8741155 -1.0474453
8.1477585 1.739812 -0.28011811
8.5031214 1.567542 -0.26375353
8.2899189 1.7261332 -0.28265393
8.8526239 1.542979 -0.28027701
9.2154922 3.0230455 -1.0435808
9.1508322 2.1357415 -0.69208241
9.4432249 2.9573641 -1.0456126
9.225687 3.0779614 -1.047626
8.1261282 1.8322726 -0.27991545
9.1479502 2.1080236 -0.57822776
9.4689951 3.0584016 -1.0506566
8.1974649 1.8440822 -0.28253728
8.7428493 1.6652321 -0.28479201
8.8032761 1.6457504 -0.28488636
9.2439575 3.17398 -1.0469661
9.4802589 3.1021039 -1.0488591
8.5660582 1.5384709 -0.24720329
8.6768398 1.536109 -0.2864514
8.3749008 1.6262848 -0.26038933
